NCOLS 305
NROWS 32
XLLCORNER -127.8333542
YLLCORNER 33.6666292
CELLSIZE 0.1666666 
NODATA_value -2147483647 
-2147483647 -2147483647 -2147483647 -2147483647 -2147483647 -2147483647 -2147483647 -2147483647 -2147483647 -2147483647 -2147483647 -2147483647 -2147483647 -2147483647 -2147483647 -2147483647 -2147483647 -2147483647 -2147483647 -2147483647 -2147483647 -2147483647 -2147483647 -2147483647 -2147483647 310.16 381.165 500.2225 357.455 623.05 681.8175 509.02 551.0675 385.83 142.7825 12.2075 6.29 9.7575 24.0775 110.4225 375.435 556 903.03 1299.875 1618.205 2198.515 2213.9925 2221.99 1502.9375 1882.565 1777.36 1530.575 1432.62 1740.4225 1315.295 1463.1325 1426.2275 1292.8875 1468.4875 1555.59 2040.0625 2147.6775 2426.2925 2269.755 1725.6025 2318.8 2197.655 2435.7125 2225.63 2318.425 2107.515 2060.3525 1827.4175 1743.4025 2476.115 2003.6175 1770.63 2252.7925 2286.3625 2116.4475 1924.775 2760.1025 1788.7475 1807.87 1709.7975 1914.5 1689.09 1470.465 1477.64 1696.23 1448.915 1446.7875 1506.7975 2256.195 2286.08 1691.045 2030.3525 2368.775 2475.805 2005.435 1862.565 1925.8025 1978.7725 1911.7225 1438.85 1309.365 1309.7725 1443.675 1518.19 1462.3775 1381.1575 1353.8175 1876.725 2327.92 2446.1875 2097.87 1601.5225 2015.325 2456.1425 2067.09 2373.85 2213.9875 2390.2 2642.18 3195.805 3163.3 3391.1025 3237.165 3539.635 3190.63 2939.9875 2816.28 2799.97 2778.5925 2697.38 2698.625 2960.5625 2370.0775 2013.7225 2046.85 1935.505 1973.3025 1866.595 1750.6675 1663.95 1574.5 1506.1575 1453.135 1443.9825 1397.9575 1357.195 1365.2625 1333.5625 1262.985 1201.44 1142.19 1071.2675 1024.7375 981.345 941.47 911.435 903.8275 882.365 843.58 806.8675 777.8625 747.625 734.3625 709.21 682.425 658.395 631.55 596.095 550.5875 533.07 515.415 498.9975 500.765 462.3225 427.675 399.4325 384.605 368.8175 368.765 366.7125 369.4725 399.725 438.4125 415.015 399.945 401.3175 356.52 326.04 316.23 299.6925 276.6325 271.7325 294.33 310.7925 291.4425 294.0175 290.385 284.645 263.135 248.075 225.9875 223.7075 231.9 223.885 218.5275 210.7675 208.85 205.405 247.96 264.475 248.385 237.035 220.525 251.3025 239.1475 209.54 163.5125 146.95 148.3625 147.3125 153.675 154.0525 162.0825 172.1725 168.895 167.8275 162.185 154.4725 175.34 175.4425 159.64 159.935 160.185 148.6825 141.4975 155.615 145.695 142.5625 156.1725 150.3575 184.9375 219.04 205.59 207.7875 240.7575 187.175 176.0075 184.575 225.105 263.3575 275.45 250.5875 225.22 216.245 259.55 218.355 225.4375 269.87 280.1125 296.9075 273.7025 250.1025 282.29 236.715 246.1275 237.145 236.385 224.9275 221.6125 209.3525 219.6 225.405 264.68 271.815 280.095 297.3925 308.8225 318.765 350.5475 409.99 509.215 660.235 686.3125 853.8675 925.345 956.735 574.185 485.0025 624.7425 581.8275 437.7525 301.9375 244.1875 319.2025 205.45 177.2775 109.945 103.5375 103.36 65.5975
-2147483647 -2147483647 -2147483647 -2147483647 -2147483647 -2147483647 -2147483647 -2147483647 -2147483647 -2147483647 -2147483647 -2147483647 -2147483647 -2147483647 -2147483647 -2147483647 -2147483647 -2147483647 -2147483647 -2147483647 -2147483647 -2147483647 -2147483647 -2147483647 -2147483647 -2147483647 189.015 386.45 314.3025 277.9325 648.5925 469.115 361.3475 364.625 156.0275 40.055 10.3175 5.3525 22.87 72.3525 236.525 411.045 703.4375 1076.8 1496.2325 1879.77 2348.71 2468.48 1866.105 2038.325 1756.0825 1652.9575 1633.3075 1820.1725 1450.785 1654.705 1752.385 1661.5325 1513.47 1712.5825 1908.39 2213.575 2519.51 2395.27 1910.905 2727.345 2205.2825 2664.1475 2140.685 2200.7875 2064.6425 1972.6475 1937.74 1524.68 1835.5275 1896.665 1706.99 2248.2675 2340.5825 1923.9325 1839.5925 2342.09 1777.89 1843.5975 1915.085 1858.8125 1596.405 1439.6525 1529.755 1563.5025 1610.585 1638.8075 1939.105 2360.18 1775.2775 2068.4925 2536.1325 2826.2175 2325.3325 1851.29 1761.255 1991.9575 2020.5175 1752.4925 1371.485 1338.7525 1308.66 1453.17 1455.79 1461.6725 1495.6 1600.6825 1737.9475 2103.56 2543.9575 2388.08 2018.235 1657.72 1578.94 1662.6525 1830.3325 2153.81 2893.49 3056.0025 3004.3325 2879.9625 3031.6475 3282.26 3487.77 3223.525 2516.885 2909.97 2962.22 2838.11 2699.12 2592 3123.0675 2632.285 1798.37 1809.675 1777.255 1832.0725 1765.4375 1658.2175 1578.3475 1569.005 1485.4025 1432.88 1387.1525 1341.4225 1297.76 1325.9575 1325.93 1263.99 1207.155 1159.2725 1113.195 1077.6575 1027.6375 975.2575 920.9425 870.1425 838.21 802.0275 775.095 755.3925 738.76 712.82 696.04 667.7125 631.38 603.9225 580.41 567.735 557.4175 543.8925 521.45 503.495 495.165 459.2775 408.4875 393.7225 388.555 385.5875 404.6925 409.205 439.63 427.4075 428.3475 440.36 391.6775 354.38 335.015 334.6075 324.7125 311.215 314.7475 310.4825 320.7025 311.4275 301.6875 277.67 265.4075 253.8225 240.365 247.5425 254.53 251.51 239.595 249.265 256.545 235.7575 205.9975 235.4475 242.4575 222.5875 212.5375 209.99 194.3775 233.89 235.0775 217.2975 176.48 151.71 161.935 156.43 129.01 162.5525 156.2 154.86 146.2175 140.6925 154.74 174.26 167.26 153.9125 139.1475 139.5875 144.6175 150.2675 139.6675 130.1525 149.035 141.875 148.1425 171.1825 185.51 207.3175 197.9825 203.24 201.905 173.8525 178.3025 215.875 238.05 217.72 213.3175 207.1125 221.2675 259.4475 223.65 230.7575 238.61 241.915 247.54 253.3 253.7425 307.9875 248.34 214.1775 229.3 254.9125 234.33 216.785 229.375 232.7 254.665 265.12 293.0125 306.4125 325.6075 341.16 367.0875 361.02 494.2 700.8 849.9925 819.3325 1036.685 1107.5375 829.905 634.875 700.6025 575.23 403.715 400.62 340.8875 494.5225 215.1725 173.1725 159.39 86.4025 86.0975 78.75 29.3725
-2147483647 -2147483647 -2147483647 -2147483647 -2147483647 -2147483647 -2147483647 -2147483647 -2147483647 -2147483647 -2147483647 -2147483647 -2147483647 -2147483647 -2147483647 -2147483647 -2147483647 -2147483647 -2147483647 -2147483647 -2147483647 -2147483647 -2147483647 -2147483647 -2147483647 -2147483647 -2147483647 248.9925 317.56 150.915 154.4275 394.225 308.52 296.1925 282.53 35.37 12.7925 3.68 14.33 46.5925 136.0575 323.515 573.1875 979.6375 1488.8175 1962.3175 2305.28 2470.3075 2395.2325 2089.5025 1972.8175 2152.0825 2182.22 1874.985 1953.8625 1383.0775 1671.9775 1679.7125 1914.205 1856.705 1889.0125 1863.3275 2049.17 1920.5425 2152.235 2280.38 2277.91 2229.29 2140.835 1975.7575 1848.1225 1974.5575 1567.815 1465.465 2078.1725 1834.23 1666.59 2148.25 2104.89 1838.53 1970.77 1849.85 1835.895 2115.6825 1647.8725 1919.725 1553.425 1849.65 1603.175 1570.4975 1830.185 2051.9925 2250.2575 1998.3225 2398.155 2562.78 2819.5875 2775.2225 2346.1 1811.7775 1814.555 1658.75 1579.18 1555.7275 1549.15 1515.1 1444.4875 1570.83 1642.88 1384.5375 1717.74 2513.32 2333.755 1860.72 2240.835 2630.345 2294.83 2020.7125 1762.1675 1738.6175 2236.7475 2411.76 2923.1425 2890.415 2817.725 2477.18 2794.72 3025.3875 3334.78 3292.37 2406.62 2693.1775 2893.27 2742.5475 2331.415 2162.6525 2349.395 2061.5725 1727.705 1639.4575 1617.735 1672.4175 1650.0325 1567.75 1483.135 1495.72 1408.7525 1427.795 1383.155 1338.215 1281.4025 1240.0475 1267.4325 1256.44 1204 1154.97 1111.2525 1065.1125 1024.2725 987.9575 956.145 916.015 895.13 865.94 838.6875 801.255 762.535 748.325 711.9725 667.6325 645.6875 629.205 615.295 601.1225 582.52 571.8325 559 534.5625 498.545 462.575 432.5275 425.02 421.3275 438.0675 430.8225 445.0475 444.55 434.6675 395.6675 386.91 368.985 346.4525 331.795 313.21 309.255 287.8075 296.285 287.1575 309.735 305.2 267.835 271.525 260.5275 256.33 271.5625 270.39 278.2675 281.6825 269.81 266.7125 271.7325 251.1175 234.18 205.055 201.5725 201.7475 227.545 196.7525 229.6675 187.12 174.6 186.5425 189.2875 182.0875 170.4475 143.835 145.23 158.79 142.9925 136.25 135.0075 138.19 154.5025 164.49 154.3 151.885 135.6725 130.8275 138.9025 142.1775 136.9425 125.8075 143.01 140.6225 150.2975 158.885 188.6675 198.915 214.94 244.46 249.62 256.955 190.3525 212.7775 213.5125 239.0525 211.195 239.515 246.66 258.735 228.865 229.7425 245.99 260.84 249.4625 244.345 266.68 257.825 275.72 228.525 212.17 239.7075 239.4625 233.45 238.43 237.44 268.7375 272.04 291.275 305.6375 344.2025 355.875 423.35 524.5275 620.31 878.7675 943.3125 1115.67 1042.2975 1021.7275 843.0275 728.6725 824.965 465.62 373.89 399.0525 560.48 354.1025 159.6175 119.44 104.1025 93.5225 93.38 24.0675 37.2625
-2147483647 -2147483647 -2147483647 -2147483647 -2147483647 -2147483647 -2147483647 -2147483647 -2147483647 -2147483647 -2147483647 -2147483647 -2147483647 -2147483647 -2147483647 -2147483647 -2147483647 -2147483647 -2147483647 -2147483647 -2147483647 -2147483647 -2147483647 -2147483647 -2147483647 -2147483647 -2147483647 -2147483647 109.235 125.295 54.1075 287.045 233.8125 318.7675 292.13 31.55 8.035 1.305 8.6875 26.5575 64.865 194.7675 510.675 812.95 1172.3975 1633.72 2096.3975 2236.4675 2533.73 2746.165 2421.3125 2541.055 2077.44 1964.575 2314.375 1761.95 1893.51 1844.1075 1622.5625 2062.185 1784.87 1695.9 1599.62 1823.7 1999.8925 2153.3475 2345.5225 1962.9675 2139.7825 1674.7325 1837.53 1707.975 1447.685 1660.205 2174.385 1674.1325 1615.4875 1955.16 1981.095 1845.5325 2028.1775 2107.9975 1882.57 2153.0175 1760.2275 2007.24 1623.715 1880.7875 1646.7975 1725.18 2138.31 2197.915 2945.2725 2176.385 2574.125 2333.54 2495.9425 2393.4825 2540.475 1869.19 1605.5975 1474.4475 1374.1225 1460.2425 1630.105 1677.955 1509.475 1509.7775 1415.74 1590.7825 1795.6575 2740.4675 2360.2775 1807.02 1774.055 2202.405 2534.365 2597.005 2279.035 1941.6375 2128.53 2549.3925 2656.295 2522.795 2530.18 2698.1775 2630.795 2689.7625 2898.285 3290.6975 2872.7 2764.93 2358.69 2250.0425 2145.6575 1882.6275 1654.825 1653.0775 1633.3075 1557.735 1506.1075 1534.45 1534.515 1465.9275 1385.6525 1406.935 1340.36 1336.19 1349.6075 1301.34 1243.91 1211.145 1206.295 1238.6 1192.3025 1146.085 1100.465 1060.05 1020.6325 981.8575 945.765 906.1075 901.655 875.28 844.3 805.5775 751.77 700.6575 680.7775 673.9525 657.8375 640.82 617.58 589.27 566.5175 551.2175 535.435 527.94 517.28 493.175 458.32 465.4375 468.3325 440.74 421.7625 436.8775 422.515 400.6675 380.3225 354.6075 347.1275 344.1075 341.435 343.515 320.0425 301.75 296.5225 282.215 276.9075 287.295 268.48 259.075 253.615 238.0025 247.6825 242.7525 270.2875 283.1525 309.1375 300.17 280.6675 266.3575 240.7975 211.9525 215.7975 226.5175 225.2075 233.3125 252.9175 232.9775 210.4275 188.15 184.0625 197.48 172.8775 147.7575 171.635 139.495 126.2675 133.5975 140.53 153.99 160.725 165.0425 149.91 131.9325 133.725 125.05 133.645 125.5675 125.3725 134.6775 140.65 148.9175 149.1025 154.6325 184.5175 206.98 227.6775 222.215 238.155 244.5275 163.225 189.045 229.5775 257.08 240.85 213.1775 254.2825 267.71 253.0375 246.4125 250.865 246.78 269.0325 285.5225 332.76 299.1325 272.7075 229.2575 227.715 219.085 223.545 228.485 248.03 248.605 244.085 274.3225 305.545 346.97 378.7575 485.3275 634.635 707.0625 817.1525 1034.9825 1065.995 1003.585 1037.39 957.75 831.055 862.465 515.755 406.06 449.4975 464.5575 535.07 187.68 141.05 100.66 98.9625 94.5525 53.745 14.715 13.415
-2147483647 -2147483647 -2147483647 -2147483647 -2147483647 -2147483647 -2147483647 -2147483647 -2147483647 -2147483647 -2147483647 -2147483647 -2147483647 -2147483647 -2147483647 -2147483647 -2147483647 -2147483647 -2147483647 -2147483647 -2147483647 -2147483647 -2147483647 -2147483647 -2147483647 -2147483647 -2147483647 -2147483647 -2147483647 59.7275 90.3375 115.7475 72.545 118.3075 59.1775 19.885 7.3525 -1.235 3.17 19.545 53.195 127.335 329.3125 622.215 978.915 1363.5825 1632.3675 2230.3 2638.945 2816.215 2722.3275 2122.5225 2516.3325 2373.745 2333.68 2065.5425 1943.9425 1903.91 1547.965 1785.2025 1757.72 1657.41 1505.385 1924.5025 1844.355 2071.84 2009.4375 1812.625 1985.145 1600.1025 1739.7525 1549.295 1637.95 2199.05 1858.7925 1640.5825 1683.995 1876.3925 1822.505 1903.2575 2162.7675 2137.03 2111.2675 2196.815 1978.26 2144.04 1839.105 1682.57 1555.15 1814.265 1828.545 2067.1175 2837.37 2082.74 2302.15 2443.4525 2612.1875 2549.285 2398.5525 1990.2025 1588.755 1559.7075 1544.0325 1471.1075 1571.065 1814.255 1676.395 1457.485 1433.9575 1755.27 1810.3775 2041.375 2012.885 1811.415 1882.5775 1788.5625 1999.2125 2408.3575 2686.3275 2553.2825 2270.9525 2897.87 3121.155 2819.89 2813.535 3108.0875 2898.505 3075.82 3019.775 2998.8875 2902.77 2578.9775 3050.61 2445.45 2369.07 2549.7125 1922.1 1635.53 1535.5675 1460.535 1424.7575 1400.8925 1423.8525 1381.405 1335.3325 1323.1025 1296.7675 1274.6925 1296.97 1273.9025 1197.74 1167.375 1148.1625 1167.715 1154.2525 1137.1725 1095.3725 1055.6025 1018.0375 981.2825 928.1825 891.535 887.7975 865.41 833.9575 786.685 736.475 711.7275 686.5375 665.8625 656.905 643.875 620.395 595.7 578.0475 552.665 533.0675 508.59 500.595 480.8925 456.925 456.84 466.6575 451.39 424.655 416.995 416.26 420.3475 421.5475 382.6375 360.15 339.4025 331.145 341.005 313.4075 321.0925 307.6675 290.305 262.835 253.995 250.6125 271 264.6925 243.2125 236.715 244.1175 234.8625 248.0475 253.6525 262.19 235.1075 237.125 227.4975 216.385 257.235 238.82 275.31 283.87 254.8325 253.915 239.55 218.36 216.7175 196.9475 157.365 171.6275 167.705 127.015 136.9025 152.5775 151.8725 155.085 145.08 137.6225 146.8675 126.605 117.605 123.9825 126.215 119.325 129.7875 138.17 136.77 153.1625 153.545 156.075 181.2375 212.6075 196.175 204.49 220.4475 218.68 145.1875 193.4825 219.67 236.1025 256.475 223.1175 240.465 267.615 278.0175 260.1 269.2675 273.565 252.31 264.335 314.575 318.7375 273.2475 242.435 253.7775 234.53 253.3525 265.1225 272.61 287.5525 296.385 330.415 364.905 406.2975 452.8 537.425 681.1575 810.7925 1046.9275 1140.79 881.05 868.105 884.245 742.6775 740.6675 672.1 456.845 370.8275 515.28 399.2325 186.1875 153.3225 138.625 126.895 116.48 86.17 48.5475 34.4825 30.24
-2147483647 -2147483647 -2147483647 -2147483647 -2147483647 -2147483647 -2147483647 -2147483647 -2147483647 -2147483647 -2147483647 -2147483647 -2147483647 -2147483647 -2147483647 -2147483647 -2147483647 -2147483647 -2147483647 -2147483647 -2147483647 -2147483647 -2147483647 -2147483647 -2147483647 -2147483647 -2147483647 -2147483647 -2147483647 51.7975 157.2075 121.4225 -2147483647 46.275 31.7725 17.1 16.64 -3.72 -0.57 13.4425 40.2725 95.6675 380.225 449.235 658.3775 1089.41 1582.665 2009.155 2370.48 2783.7225 2969.5725 2761.7425 2153.9075 2020.19 2250.7425 2116.8925 1936.845 1914.2475 1639.1675 1487.855 1772.84 1569.675 1654.0775 1791.795 1699.145 1807.3675 1850.6425 1796.845 2018.8775 1842.23 1617.315 1720.7475 2314.9225 1894.7475 1628.665 1620.275 1799.47 1640.545 1612.535 1896.08 1857.76 2010.9175 2111.6125 2058.63 2079.3225 1877.59 1666.865 1594.36 1839.2875 2000.0725 2057.625 2171.3175 2321.1275 2374.5025 2474.4675 2433.23 2912.0625 3112.635 3090.3 2249.3175 1766.66 1978.565 2312.94 1542.82 1470.375 1699.9675 1671.065 1689.6225 1703.02 1781.12 1909.9825 1994.98 2071.25 1886.785 1916.05 2016.105 2204.4975 2349.4225 2557.9225 2853.0575 2729.305 3285.225 3516.59 3245.58 3145.2925 3324.5275 3124.205 2975.2425 2836.115 2630.865 2429.4025 2335.5525 2873.725 3112.985 2527.2025 2917.99 2659.6925 1893.655 1650.12 1573.495 1479.1125 1422.115 1359.1025 1341.5725 1301.4625 1284.2225 1245.785 1218.72 1202.745 1178.0575 1152.245 1126.14 1103.5325 1076.5025 1062.38 1063.09 1057.205 1038.51 1009.1 965.19 910.0625 880.765 887.3325 846.02 823.5775 792.075 769.6225 734.8875 693.35 695.255 668.2825 640.3525 626.035 606.7825 581.9 560.1875 539.9575 517.255 489.5925 479.29 456.0425 441.155 445.66 454.835 434.37 442.22 441.06 450.335 457.35 386.7675 341.4525 352.2275 324.51 313.7625 322.675 336.635 316.3825 301.92 271.2025 265.3925 252.2725 238.2575 238.5525 245.1375 252.9925 260.0975 264.575 282.515 282.1525 261.4575 242.7725 247.5825 270.435 272.8725 308.855 255.77 304.445 298.3175 287.5725 262.18 267.4975 282.0675 247.805 227.3025 216.1625 159.9225 147.3775 136.8275 150.54 147.15 141.305 140.17 135.9425 130.245 143.405 139.18 131.1275 125.0625 115.8275 125.755 134.395 137.3775 128.3675 134.425 130.845 141.6575 153.295 185.925 172.4575 188.235 200.785 186.5875 176.5575 186.505 199.6225 215.395 246.775 238.21 259.1825 278.0375 293.0275 286.4125 290.9725 287.675 264.2625 268.56 306.6475 318.8425 284.57 273.325 257.025 244.55 291.8975 308.475 300.0975 340.8925 380.885 401.8475 470.49 488.51 532.33 697.3425 850.9225 1030.3475 952.6775 797.72 848.7075 738.905 719.2625 599.305 614.5575 610.905 468.27 427.98 407.9975 191.465 163.9075 171.23 132.4675 107.6975 94.385 83.9575 57.665 57.2725 33.415
-2147483647 -2147483647 -2147483647 -2147483647 -2147483647 -2147483647 -2147483647 -2147483647 -2147483647 -2147483647 -2147483647 -2147483647 -2147483647 -2147483647 -2147483647 -2147483647 -2147483647 -2147483647 -2147483647 -2147483647 -2147483647 -2147483647 -2147483647 -2147483647 -2147483647 -2147483647 -2147483647 -2147483647 -2147483647 -2147483647 -2147483647 151.375 -2147483647 153.985 130.2525 298.475 106.5225 0.9925 -1.2325 7.0625 23.635 53.94 176.7775 292.82 449.7825 754.7475 1112.01 1369.955 1881.0025 2406.2525 2769.3875 3135.155 2192.0525 2264.9125 2226.375 2066.9925 2206.9075 2241.2675 1652.2375 1626.8075 1598.3325 1657.8 1674.74 1611.7725 1611.5325 1634.1525 1652.16 1920.865 2203.1875 1933.635 1754.1525 1800.3575 1718.9225 1823.7725 1749.1375 1585.835 1787.6275 1612.79 1478.1675 1989.0525 1721.8925 1762.1025 2101.615 1951.4075 1680.6 1594.66 1569.345 1610.005 1710.755 1824.9975 1979.345 2416.06 2062.2125 2626.78 2447.995 2718.3 2687.4775 2312.98 2100.515 1930.645 1890.28 1789.7625 2178.6275 1590.2275 1366.855 1584.34 1871.6 2119.655 2228.1575 2315.44 2360.35 2084.8925 2106.1025 2199.5625 2094.63 2106.01 2456.7525 2834.475 3015.9225 3064.0275 3503.525 3628.3775 3613.3325 3365.8375 3508.5175 3452.1075 3433.3225 3383.9825 2972.49 2525.0975 2314.4175 2302.9225 2334.0325 3152.3025 2804.0775 2645.89 2943.1075 2140.7275 1772.0275 1707.8925 1649.035 1504.8 1417.085 1376.3125 1324.135 1308.4825 1301.635 1250.625 1240.1025 1228.31 1227.2825 1194.61 1167.11 1116.6625 1079.9125 1052.3225 1021.1625 987.0675 973.1425 929.5825 904.2225 883.475 870.2675 862.1725 845.0725 818.105 784.81 747.9175 728.405 704.1925 672.785 657.73 637.1425 613.9275 590.2825 564.0025 536.68 507.7275 483.7775 467.5 453.105 432.675 426.8 437.815 413.56 426.2475 424.615 444.785 388.82 357.675 322.1275 328.575 328.6925 307.0925 300.5725 321.5325 320.085 290.5875 267.4575 252.4 240.9925 250.2625 254.4075 258.4925 255.1525 282.8175 299.1125 292.9425 298.585 294.0025 301.0125 303.03 301.135 294.7 284.8575 276.15 314.185 301.7875 293.59 282.77 292.315 324.605 300.4025 251.85 267.3225 223.9475 168.2625 131.54 143.7725 162.075 137.0425 124.35 123.6 126.05 143.52 134.4 116.1425 124.3975 110.6475 115.5975 119.685 116.855 118.4825 120.0725 124.7875 128.9525 148.5375 159.7125 190.575 203.395 203.0375 199.275 165.44 200.6275 209.7125 221.625 233.045 249.6825 247.295 286.44 280.3425 268.305 260.7 258.7275 310.1425 339.9175 305.0525 296.685 314.2475 288.63 268.6225 269.635 296.705 362.3075 348.0275 401.41 459.315 541.74 611.315 624.225 603.6525 831.915 836.005 779.95 684.2775 755.5375 727.035 696.8625 554.6175 607.7725 475.9225 547.1875 723.0525 502.225 294.69 190.7225 139.605 123.67 127.6675 107.7175 93.85 76.0475 54.91 47.77 46.9275
-2147483647 -2147483647 -2147483647 -2147483647 -2147483647 -2147483647 -2147483647 -2147483647 -2147483647 -2147483647 -2147483647 -2147483647 -2147483647 -2147483647 -2147483647 -2147483647 -2147483647 -2147483647 -2147483647 -2147483647 -2147483647 -2147483647 -2147483647 -2147483647 -2147483647 -2147483647 -2147483647 -2147483647 -2147483647 -2147483647 -2147483647 -2147483647 40.6 25.9475 186.85 204.26 248.17 146.9825 18.6575 8.31 22.76 42.7625 68.85 137.4275 292.03 633.2725 927.045 1251.5025 1776.4775 2191.0775 2762.62 3267.915 2691.7775 2391.055 2434.75 2241.2375 2088.5075 2807.12 1581.76 2068.515 1991.145 1354.2825 1754.975 1753.005 1686.6175 1746.4025 1723.3475 1704.805 1919.11 1957.375 1749.03 1712.7025 1485.5275 1830.615 1866.745 1573.585 1485.2825 1653.8525 1485.3025 1733.9525 1501.0175 1831.9375 1870.63 1720.8125 1607.8125 1580.1825 1779.56 1707.5975 1739.1525 2375.9725 2764.2725 2539.6925 2192.0575 2426.17 2305.515 2614.21 2154.67 1868.1825 1749.99 1688.55 1817.7775 1562.59 1477.32 1560.115 1296.4 1604.935 1990.5 2352.77 2299.9425 2162.9625 2221.4875 1974.93 2023.305 2076.34 2285.43 2459.81 2533.1925 2848.36 3139.4325 3364.425 3416.3725 3563.83 3528.3 3245.7325 3079.7275 3058.5975 3060.4975 2855.0775 2609.37 2381.78 2326.7425 2307.2175 2305.5125 2465.545 2856.2275 2398.19 2196.855 2000.2125 1813.21 1814.52 1811.635 1630.995 1515.3925 1443.3825 1431.4375 1382.265 1335.7225 1323.045 1314.4525 1318.8025 1320.25 1288.3175 1237.405 1177.775 1116.755 1051.5425 1022.91 997.12 953.8625 936.9125 917.17 893.3025 871.045 853.2425 832.71 815.4 791.7725 767.565 739.3725 704.205 687.82 663.9875 642.1375 621.635 593.86 566.5725 536.5225 512.2225 485.9675 456.9075 451.35 437.8425 410.8 421.4075 404.1 402.6175 428.45 460.0875 384.3725 334.3925 323.5475 296.965 301.3625 300.965 294.215 307.4775 314.4125 285.165 279.1925 253.8825 258.335 270.5475 277.255 272.075 275.345 311.1875 306.7325 312.72 337.56 318.34 350.4375 348.315 304.075 317.2825 304.79 325.175 340.3175 346.105 341.945 347.3625 344.4525 354.3275 313.055 327.98 285.7475 280.485 213.7975 172.5075 147.1525 134.1325 141.855 127.59 129.7875 138.9625 146.0325 119.1125 119.2025 116.2925 112.885 117.62 121.1975 124.8175 127.1025 119.095 121.6425 140.7225 171.56 177.68 206.295 222.185 231.485 236.615 204.9375 174.66 204.4425 222.805 251.695 261.3575 267.995 257.6575 264.0875 276.3175 241.75 289.4625 332.6475 331.6075 331.635 339.8775 320.4425 314.8825 274.0775 313.6525 313.905 352.1725 442.5125 457.3425 550.925 642.985 661.6 715.0375 779.5325 704.325 731.22 618.32 690.135 746.7975 572.6425 583.1125 482.2 517.16 356.5625 629.5925 477.7925 279.6225 204.555 140.4175 119.865 103.525 93.17 89.7575 89.8075 77.5875 52.7225 40.09 34.725
-2147483647 -2147483647 -2147483647 -2147483647 -2147483647 -2147483647 -2147483647 -2147483647 -2147483647 -2147483647 -2147483647 -2147483647 -2147483647 -2147483647 -2147483647 -2147483647 -2147483647 -2147483647 -2147483647 -2147483647 -2147483647 -2147483647 -2147483647 -2147483647 -2147483647 -2147483647 -2147483647 -2147483647 -2147483647 -2147483647 -2147483647 -2147483647 133.755 -2147483647 26.1575 212.1475 422.3175 620.01 342.1625 71.7525 17.175 29.54 50.755 75.01 129.5825 363.38 681.6675 916.8875 1409.0225 2174.245 2722.82 2494.13 2611.285 2838.585 2439.345 2062.3225 1498.63 3036.8875 2153.3025 1780.7375 1838.1675 1770.12 1808.91 1655.965 1584.065 1557.5725 1796.235 1685.21 1669.6875 1776.8725 1884.4125 1649.1625 1713.6 1778.7125 1858.8 1354.5425 1512.1975 1530.6275 1774.575 1623.75 1636.8425 1809.175 1819.13 1868.9825 1753.91 1809.3125 1999.81 1859.995 2310.1575 2642.885 2888.265 2428.66 2368.5725 2460.605 1989.7275 2079.3675 2230.4925 2009.2325 1707.1775 1589.7025 1570.17 1615.125 1214.505 1279.4025 1507.47 1674.425 1849.8125 2123.4375 1983.58 1734.7525 1774.6 1702.73 1838.23 1987.935 2101.94 2286.015 2420.29 2754.32 3019.46 2956.5325 2989.075 3485.4075 3438.045 3202.5175 3339.02 3433.1075 3095.87 3097.575 2827.12 2452.275 2327.6125 2307.78 2296.4925 2629.6475 3188.065 2815.0025 2427.7575 2079.665 1945.44 1900.1725 1809.925 1691.09 1648.6875 1571.6 1498.19 1436.0325 1443.9425 1436.3525 1422.9725 1420.3 1381.165 1317.4175 1257.6925 1193.21 1126.7775 1068.5125 1015.3125 970.6 939.675 933.11 926.7275 907.2625 889.0525 856.375 847.6175 828.5175 801.8325 778.5425 752.9475 727.3875 708.12 677.1125 644.8275 624.3425 590.5825 561.64 531.51 504.1875 482.81 449.32 420.8375 418.87 397.71 402.41 392.81 395.6675 431.8525 467.9725 392.355 347.8 319.0875 289.7175 276.45 288.19 292.485 283.66 285.94 300.2125 294.1975 271.5 281.4375 292.8975 300.01 302.0875 288.82 302.83 329.635 339.1075 348.74 366.0775 394.23 363.82 341.3075 355.3625 347.3775 359.475 382.1775 381.0025 379.5125 382.4275 367.9875 331.2475 387.8 326.85 262.0725 271.5275 250.4675 200.78 157.3275 144.5075 150.6775 180.51 178.9225 176.78 168.81 173.6025 168.8425 149.625 123.0375 125.5075 136.53 134.105 126.8925 126.1175 131.39 146.72 157.295 177.51 191.5975 205.7975 223.985 215.7975 241.4125 215.055 212.1875 245.71 274.5575 319.2 297.83 285.4 302.4875 321.9675 333.0825 320.0775 295.665 286.2875 306.4775 337.78 363.615 347.71 302.0225 313.9625 370.98 402.465 426.2425 453.07 487.8175 544.5525 618.5625 770.1675 814.435 641.5375 575.4975 671.815 779.1475 753.745 624.155 441.1 426.805 473.3925 437.8225 319.0725 255.335 194.2825 189.0275 149.7 143.39 106.555 93.62 93.26 81.5 75.68 49.7725 44.3375 28.19
-2147483647 -2147483647 -2147483647 -2147483647 -2147483647 -2147483647 -2147483647 -2147483647 -2147483647 -2147483647 -2147483647 -2147483647 -2147483647 -2147483647 -2147483647 -2147483647 -2147483647 -2147483647 -2147483647 -2147483647 -2147483647 -2147483647 -2147483647 -2147483647 -2147483647 -2147483647 -2147483647 -2147483647 -2147483647 -2147483647 -2147483647 -2147483647 108.4125 231.205 36.175 70.0225 558.94 792.4075 708.515 338.4175 39.025 23.625 40.985 58.2025 103.8375 180 433.0075 598.965 929.2625 1610.02 1934.7525 1785.3275 2462.0575 2996.56 3333.9525 1764.5525 1329.675 2280.5475 2426.495 1644.9575 1897.7775 2153.345 1666.5625 1564.4225 1512.5 1633.79 1687.835 1635.445 1696.3675 1770.0825 1936.1125 1555.135 1919.5325 1479.2325 1558.5125 1396.2275 1497.0525 1475.52 1836.485 1564.515 1733.4375 1827.4175 1589.43 1709.5675 1657.6075 1947.11 2372.135 1664.4675 2258.5075 2159.725 2315.975 2244.5025 2330.6875 2269.4175 1905.3825 1860.7875 1831.81 1848.7775 1870.0125 1774.855 1430.49 1403.555 1280.2025 1337.335 1631.7675 1591.03 1722.45 1937.855 1647.15 1518.36 1540.675 1528.4875 1609.5375 1782.15 1974.43 1975.6425 2190.2925 2504.0025 3171.65 2655.6925 2668.27 2761.6575 2909.075 2615.215 2817.1275 2844.7675 3184.925 3414.01 3243.425 2690.2225 2343.32 2304.1425 2299.7725 2346.6425 2478.2775 2919.9475 2770.0475 2615.0375 2159.0575 1913.835 1794.2875 1715.05 1656.64 1555.61 1565.4525 1606.905 1611.5975 1580.685 1538.4075 1477.925 1398.51 1322.5175 1251.3325 1185.0975 1128.62 1074.49 1022.63 977.8425 949.0225 919.585 899.84 899.3775 874.9925 854.8625 824.8675 776.5 786.6775 779.605 729.795 700.2075 679.705 655.065 600.605 567.2675 553.88 543.4825 532.88 498.23 471.2575 437.01 430.855 405.3425 389.91 375.6975 374.4075 390.52 427.985 439.365 381.0675 320.5925 302.35 292.885 273.685 272.98 297.3175 285.065 270.42 280.7725 285.6075 286.8575 295.4525 296.2425 317.365 320.35 307.7275 325.4625 334.1875 360.765 388.5025 403.5175 402.745 405.63 369.3825 397.9425 395.2525 366.38 369.23 332.035 336.665 359.3275 339.1775 290.03 269.6575 271.285 246.495 240.9775 226.22 187.8725 146.355 162.3125 120.7725 162.7425 134.765 138.3525 141.7925 156.655 138.1175 126.9975 153.1625 130.3825 120.42 141.17 123.4875 123.455 128.1925 135.9075 163.32 179.0275 199.04 203.555 205.2225 229.1825 240.7175 250.2075 256.3 266.2775 299.35 324.38 334.4675 346.8425 340.7825 378.675 391.4075 373.4675 313.8325 335.3075 327.98 357.7475 390.82 409.28 381.425 379.945 391.9575 459.88 490.935 519.225 538.995 580.2725 705.5725 808.75 744.53 667.79 636.395 905.6325 795.525 691.8025 566.0925 429.875 430.11 467.3725 313.8125 258.455 223.66 213.0925 216.3525 167.2925 132.1425 115.91 104.1625 88.075 85.7325 75.3725 39.035 28.4775 27.3375
-2147483647 -2147483647 -2147483647 -2147483647 -2147483647 -2147483647 -2147483647 -2147483647 -2147483647 -2147483647 -2147483647 -2147483647 -2147483647 -2147483647 -2147483647 -2147483647 -2147483647 -2147483647 -2147483647 -2147483647 -2147483647 -2147483647 -2147483647 -2147483647 -2147483647 -2147483647 -2147483647 -2147483647 -2147483647 -2147483647 -2147483647 -2147483647 -2147483647 348.025 424.065 161.1 225.8125 683.0025 593.2425 390.2275 88.7675 24.505 29.54 40.1125 56.675 84.0925 187.1475 314.4475 600.9025 887.8625 1408.0025 2001.145 2661.9225 2876.8525 3400.1925 2887.705 2055.1875 1623.6025 2026.6225 1471.83 1405.34 1347.855 1708.285 1724.5475 1261.7075 1393.7025 1669.9725 1736.285 1942.3925 2053.76 1697.6 1429.895 1428.8575 1551.955 1339.2475 1494.08 1153.125 1523.895 1525.7175 1302.74 1230.36 1401.6075 1186.2675 1292.895 1257.8025 1500.81 1409.24 1264.7325 1524.0475 1819.1625 1850.2 1885.3225 1905.4125 1959.745 1796.005 1629.0675 1636.08 1595.6275 1546.1375 1503.235 1829.7125 1288.5375 1316.2375 1387.465 1308.3675 1436.495 1651.5375 1605.7725 1469.6725 1427.97 1435.8675 1440.2175 1515.1375 1739.09 2008.6175 2059.785 2183.84 2242.85 2373.545 2179.185 2199.1425 2207.9725 2398.2125 2382.8175 2309.01 2425.8525 3064.3125 3417.1125 3110.275 2697.575 2402.06 2326.195 2349.235 2362.66 2519.395 3181.4 3087.845 2454.0025 2224.6825 2047.3925 1794.045 1701.68 1659.03 1651.4925 1685.51 1751.825 1734.1825 1657.1625 1575.99 1491.99 1408.985 1330.64 1258.6475 1189.495 1129.915 1077.35 1031.0925 987.9975 962.75 936.6325 900.83 860.7975 858.45 843.355 793.3075 758.6875 710.505 697.645 655.715 605.15 608.5125 632.5775 591.6225 576.6325 523.3375 468.0325 466.495 448.1375 435.1 412.28 388.0575 380.3 379.6075 364.785 357.3575 378.31 399.2625 391.6775 335.2025 318.445 293.66 269.0925 251.64 252.2375 270.15 271.5325 260.8425 270.7975 274.52 271.495 286.7775 305.715 337.17 368.89 349.6975 350.52 372.6375 398.465 423.125 453.1375 462.21 420.98 394.8225 423.9075 384.19 390.4975 387.3825 351.335 290.3475 284.255 293.345 253.8175 228.3975 199.65 193.4225 187.8175 189.5075 153.0375 122.5075 117.305 134.9325 121.78 111.83 107.7 118.7425 140.1 139.4775 135.895 160.8025 150.8125 135.365 142.8225 135.17 146.08 140.48 138.105 143.3875 159.9675 172.6825 196.2625 222.8975 217.96 204.3425 212.385 223.1625 254.8225 277.39 295.945 340.49 332.0375 333.6925 347.86 352.3225 356.97 335.885 377.51 379.5025 383.02 427.69 457.085 503.64 527.195 515.6075 524.21 563.0225 655.465 713.545 675.7825 822.3275 827.2575 788.025 787.19 692.4275 620.91 643.375 574.87 501.405 356.0725 327.9775 276.9875 245.2975 241.82 240.18 204.24 195.6675 167.5975 132.2125 137.7125 116.2275 91.3275 77.025 72.5675 38.095 29.7175 17.9675
-2147483647 -2147483647 -2147483647 -2147483647 -2147483647 -2147483647 -2147483647 -2147483647 -2147483647 -2147483647 -2147483647 -2147483647 -2147483647 -2147483647 -2147483647 -2147483647 -2147483647 -2147483647 -2147483647 -2147483647 -2147483647 -2147483647 -2147483647 -2147483647 -2147483647 -2147483647 -2147483647 -2147483647 -2147483647 -2147483647 -2147483647 -2147483647 -2147483647 187.555 315.225 413.44 352.1575 210.0725 452.08 396.6425 167.7625 46.415 29.6025 34.2125 50.2175 71.3275 96.11 153.9125 299.3 454.3325 913.6425 1679.5275 2411.1675 2666.595 3298.515 3321.425 2886.9225 1387.5575 2384.805 1807.2425 1217.025 1297.8975 1132.71 1470.2925 1561.2775 1258.445 1288.5575 1489.5425 1737.1275 1657.07 1332.535 1459.595 1527.895 1658.455 1291.6275 1162.155 1237.32 1138.5025 1123.145 988.3675 1120.1425 1017.78 940.2675 1229.935 1210.185 860.9275 968.2525 1368.0375 1507.8075 1764.45 1840.9175 1721.495 1692.0875 1744.575 1737.86 1478.645 1441.8175 1327.3625 1244.1425 1216.13 1386.1075 1591.9325 1571.77 1656.5025 1505.7275 1531.4425 1641.06 1439.31 1479.4325 1507.825 1563.635 1587.4475 1480.4075 1552.145 1639.905 1877.1 1984.6725 2042.7775 2020.1675 2014.735 2080.1975 2009.7525 2110.135 2164.59 2191.18 2364.2975 2682.7675 3203.2025 3142.95 2828.13 2493.5875 2384.5925 2350.03 2343.1975 2620.5525 3283.0175 2836.705 2398.53 2184.725 2087.0925 2295.365 1913.9275 1758.4825 1799.9725 1809.9875 1842.255 1737.74 1603.54 1501.0275 1423.935 1371.21 1308.8425 1239.475 1164.3125 1110.3375 1072.345 1037.1125 1008.74 973.53 937.74 906.54 870.42 824.53 801.96 749.0525 722.9725 660.2675 603.145 583.96 562.4875 562.8375 584.4475 545.0825 504.4825 496.6025 440.5425 417.4375 396.635 410.41 390.315 373.13 354.7025 354.2425 360.445 348.595 357.435 387.1 357.755 295.7925 292.225 266.1075 253.185 256.4175 232.4 261.455 272.4675 251.6475 263.5775 261.95 291.44 320.67 333.83 353.0675 372.7625 395.1825 398.165 380.295 386.005 423.345 459.3875 460.395 410.685 407.1625 399.1875 403.6125 400.465 359.97 330.4425 293.3225 280 226.465 239.0525 195.29 194.585 170.525 166.275 124.44 113.39 98.14 114.525 100.6975 100.81 103.2075 122.2675 117.655 108.1575 112.6625 120.2775 135.585 154.085 167.7775 166.375 165.4875 160.0375 179.315 156.46 166.255 172.265 170.78 189.1275 215.5975 220.715 244.12 246.275 247.93 263.01 303.21 309.2175 300.835 305.4225 327.6125 345.07 364.56 375.2 369.69 413.74 443.5375 489.175 498.345 507.85 666.66 631.27 617.7475 633.955 660.04 710.07 744.375 827.5325 942.58 904.895 830.3325 757.1425 652.0325 605.29 655.4125 702.2175 643.0625 372.9875 293.365 267.57 230.8225 212.305 180.6 164.96 155.705 155.4675 161.2475 155.0725 118.66 108.2325 92.2375 69.9725 44.01 37.6675 35.125
-2147483647 -2147483647 -2147483647 -2147483647 -2147483647 -2147483647 -2147483647 -2147483647 -2147483647 -2147483647 -2147483647 -2147483647 -2147483647 -2147483647 -2147483647 -2147483647 -2147483647 -2147483647 -2147483647 -2147483647 -2147483647 -2147483647 -2147483647 -2147483647 -2147483647 -2147483647 -2147483647 -2147483647 -2147483647 -2147483647 -2147483647 -2147483647 -2147483647 -2147483647 -2147483647 -2147483647 75.88 143.2125 96.3375 529.76 418.215 231.9475 72.0325 43.2225 44.695 57.6775 77.6925 97.2775 122.59 206.64 470.9825 691.1475 1261.9175 2035.6275 2478.9 2932.735 3258.515 1445.5025 2196.235 1388.74 1264.3675 1723.715 1219.0625 946.86 1766.5725 1350.6025 1193.16 1310.79 1437.885 1578.9325 1275.835 1206.7 1498.4975 1299.74 1228.26 1188.2125 1365.3175 847.545 972.815 955.225 1339.3475 833.4175 700.2175 773.05 1243.115 1175.4625 1188.145 1404.87 1511.9425 1582.8925 1649.1475 1453.3875 1548.1875 1777.6025 1903.89 1805.665 1763.41 1300.4825 1285.195 1333.4975 1466.21 1655.735 1866.985 1891.97 1838.4825 1643.17 1677.2125 1543.3025 1550.4475 1576.4375 1686.01 1767.0925 1689.3075 1509.69 1567.385 1698.045 1832.7425 1817.665 1859.8825 1880.835 1989.835 1982.8575 1971.2475 2119.0525 2224.265 2284.8925 2467.665 2567.87 3124.725 2927.6125 2684.855 2444.3625 2344.505 2426.315 2951.3875 3194.245 2599.455 2465.36 2379.8175 2286.9475 2206.105 2347.105 2169.675 2033.54 1843.775 1725.7975 1596.715 1508.74 1419.515 1347.6 1293.2175 1241 1195.4925 1175.2225 1144.6725 1100.3275 1049.2875 1007.425 964.18 927.54 888.3075 853.3 828.085 788.5225 773.1375 741.945 677.0825 639.01 614.3075 575.305 542.1875 567.255 575.5275 520.185 450.9575 406.325 381.1675 371.7825 382.9175 356.7725 356.7675 354.9 334.7575 332.75 349.9275 347.2325 351.71 374.8925 317.0925 274.3375 249.24 234.965 255.7625 228.4925 254.8 272.16 253.0875 243.485 259.3275 318.595 338.2475 362.465 378.2525 419.0075 432.615 399.505 367.3075 381.2675 372.4775 377.945 368.3425 355.1075 318.04 321.82 336.3725 368.6625 336.09 305.6 291.2475 271.5075 230.405 205.6075 223.405 172.82 147.565 122.8925 114.4075 125.91 91.835 95.4975 95.8325 94.47 109.9475 120.5725 132.0525 120.81 128.3475 126.5175 137.41 148.46 148.545 176.33 190.9925 199.2675 201.14 177.3425 198.905 185.6875 170.5875 179.9 196.3475 223.7725 264.23 266 267 247.385 259.505 271.2925 303.4575 301.585 330.3975 343.7875 368.815 358.34 407.135 525.04 568.305 595.83 704.3 803.7925 689.1875 836.1575 662.9025 624.7175 702.8275 791.9525 812.7525 731.77 825.62 788.7225 751.5525 670.1375 690.635 786.97 783.275 703.385 451.8475 365.6675 294.695 258.95 250.1375 193.4075 167.59 155.635 132.6725 144.785 146.115 135.305 122.91 105.8575 82.9175 63.8825 34.7225 28.68 33.9425
-2147483647 -2147483647 -2147483647 -2147483647 -2147483647 -2147483647 -2147483647 -2147483647 -2147483647 -2147483647 -2147483647 -2147483647 -2147483647 -2147483647 -2147483647 -2147483647 -2147483647 -2147483647 -2147483647 -2147483647 -2147483647 -2147483647 -2147483647 -2147483647 -2147483647 -2147483647 -2147483647 -2147483647 -2147483647 -2147483647 -2147483647 -2147483647 -2147483647 -2147483647 -2147483647 -2147483647 15.545 182.8575 434.43 364.4025 700.3325 605.425 290.8075 87.6675 56.0525 52.4375 68.0775 82.9975 98.205 116.5875 195.0475 489.0675 1043.1125 1878.1775 2262.775 2581.0475 3425.0175 1863.225 1438.1725 1563.34 511.89 1255.1025 1565.49 173.665 575.875 1094.295 933.1975 924.6825 977.42 1146.205 1180.9025 1163.2775 1278.225 1139.94 1211.34 1696.3225 1641.1375 840.7675 702.025 611.6775 683.815 595.8 699.32 1287.0275 1628.9825 1617.8625 1421.69 1496.2275 1508.2225 1567.625 1454.8125 1516.56 1785.745 2247.6825 1990.0425 1832.29 1578.285 1546.515 1693.4425 1637.91 1661.99 1714.09 1909.14 2142.8175 2038.2425 1784.4775 1670.6025 1616.5975 1592.21 1627.6875 1757.0175 2102.485 1984.305 1620.465 1572.5425 1569.615 1620.2775 1696.565 1713.31 1788.66 1832.1325 1950.7475 1990.935 2188.7875 2238.245 2357.655 2353.9825 2307.69 2925.575 2986.76 2732.3575 2474.9 2366.545 2562.2875 3124.8075 2989.645 2515.7775 2298.4275 2197.4475 2068.41 1950.0375 2087.275 2149.3375 2113.8625 1933.415 1781.535 1664.5325 1578.9725 1479.215 1407.18 1345.0325 1290.7275 1242.12 1197.89 1143.8275 1084.2625 1025.785 968.3475 929.53 892.655 862.2175 826.0975 814.2175 797.465 762.615 738.0425 703.875 665.07 651.5575 585.1225 542.34 522.0875 496.995 511.605 452.9825 426.5475 383.9525 357.0025 358.4925 337.3725 325.6725 325.4525 318.16 308.9 317.83 329.475 326.2875 345.9125 301.105 275.1825 258.71 223.82 241 214.44 239.51 238.835 234.2775 247.4575 262.2575 311.05 353.33 369.185 400.475 440.8375 404.83 359.1475 370.3075 325.8125 293.3675 311.285 338.115 323.0325 309.9125 281.77 306.345 339.015 301.705 270.075 258.33 237.27 227.1875 177.885 177.345 143.8025 115.085 98.0175 101.71 96.0775 87.84 89.28 89.8075 90.465 108.07 120.7775 140.61 145.3075 151.9325 140.725 145.2225 148.1525 166.6425 164.3225 173.6725 179.1525 184.1575 181.345 194.68 205.77 204.5275 216.8825 223.9725 240.3425 272.43 250.625 222.995 272.58 323.93 347.2875 344.2225 339.3325 369.8425 361.3475 355.365 401.49 462.015 489.195 618.95 563.395 568.715 584.625 632.4825 530.39 595.9225 616.84 655.7675 629.4875 670.5725 865.3625 968.9375 920.145 836.065 746.8925 792.065 795.4525 878.0425 508.18 352.2675 300.7125 300.9 250.39 219.0125 189.46 155.47 131.0325 121.4825 126.605 129.695 111.4225 104.7925 84.8075 80.2375 58.4275 38.5175 30.54 24.125
-2147483647 -2147483647 -2147483647 -2147483647 -2147483647 -2147483647 -2147483647 -2147483647 -2147483647 -2147483647 -2147483647 -2147483647 -2147483647 -2147483647 -2147483647 -2147483647 -2147483647 -2147483647 -2147483647 -2147483647 -2147483647 -2147483647 -2147483647 -2147483647 -2147483647 -2147483647 -2147483647 -2147483647 -2147483647 -2147483647 -2147483647 -2147483647 -2147483647 -2147483647 -2147483647 -2147483647 169.9825 203.5925 320.125 591.0925 685.9125 667.435 485.3975 281.7075 89.935 56.9 57.6475 70.23 84.6275 98.0675 109.4725 227.61 584.72 1136.4225 2029.045 3009.445 3356.8425 3063.0675 1382.36 1757.2925 1600.7175 1472.025 1453.03 424.285 388.9875 114.385 910.545 806.22 766.1375 867.7125 1038.8175 1276.5825 1112.205 1010.075 1133.6525 2072.225 1762.0775 920.695 651.595 603.7225 485.96 680.0375 1446.2775 1182.065 1339.4075 1652.505 1564.2925 1672.0525 1650.225 1605.295 1531.1275 1525.29 2071.0375 2532.365 2234.5225 1542.445 1570.69 1872.915 1846.6175 1826.38 1841.1675 1948.19 1924.7525 2031.795 2118.695 2124.3925 1783.1475 1707.0975 1685.5525 1629.8475 1742.6925 2050.8225 1893.195 1791.18 1656.065 1619.2475 1715.3275 1824.19 1800.505 1870.47 1908.025 1964.705 2008.4 2167.73 2201.1025 2268.21 2197.9975 2233.7575 2664.2125 2860.5225 2583.21 2396.4475 2231.7425 2645.3275 3269.8925 2824.8375 2499.6575 2153.915 1942.0275 1845.1375 1921.3375 2154.8175 2141.5725 2018.14 1915.5975 1790.825 1697.59 1595.465 1476.4525 1406.775 1339.535 1280.7175 1228.28 1179.18 1135.31 1070.0675 1027.745 980.77 928.68 895.955 853.3575 860.2875 882.185 851.8575 824.125 770.4475 749.8575 707.43 665.2675 636.1475 616.5225 608.155 529.5875 463.085 478.47 431.5875 411.63 407.185 389.7425 358.5125 334.5625 319.6375 310.6775 300.35 292.495 297.6825 280.8075 306.18 289.5925 265.5025 264.3675 212.9825 217.51 208.5575 237.6775 230.2525 229.07 249.245 256.5575 292.9675 320.935 354.9525 397.2025 443.2525 372.0725 323 326.93 314.01 271.165 298.6425 272.9025 266.31 278.615 239.8975 291.875 305.3375 273.3375 235.6775 238.365 180.5325 187.65 148.1825 126.7 98.9675 91.505 93.1675 97.3575 84.4525 83.025 86.0975 88.355 96.0075 103.6675 119.665 141.4425 155.1425 166.5025 156.45 133.6675 148.4175 172.7575 178.0175 159.2425 161.3725 169.6825 188.985 207.8825 232.4025 246.4925 255.445 266.04 257.3925 268.7675 249.5625 244.365 259.3475 315.93 420.605 422.99 398.145 444.9 478.28 419.795 553.9 526.0075 476.4775 482.5675 484.1525 478.1625 484.455 470.2175 450.0125 496.975 550.36 566.2475 792.5275 913.59 1132.0725 926.4175 863.3 812.4425 753.9525 593.3175 467.8325 471.1675 377.475 301.86 272.5425 225.8475 202.6325 169.9525 153.7025 144.1075 134.6975 132.2625 112.325 103.415 89.0525 87.4725 88.91 81.0525 48.4375 29.0675 25.9825 22.465
-2147483647 -2147483647 -2147483647 -2147483647 -2147483647 -2147483647 -2147483647 -2147483647 -2147483647 -2147483647 -2147483647 -2147483647 -2147483647 -2147483647 -2147483647 -2147483647 -2147483647 -2147483647 -2147483647 -2147483647 -2147483647 -2147483647 -2147483647 -2147483647 -2147483647 -2147483647 -2147483647 -2147483647 -2147483647 -2147483647 -2147483647 -2147483647 -2147483647 -2147483647 -2147483647 210.4675 593.885 658.4875 371.0075 275.6175 436.8075 768.3925 867.3875 827.255 290.2575 91.5175 67.7525 64.14 73.4525 82.8425 90.7425 110.205 210.825 593.06 1684.9525 2944.0925 2855.5075 3048.9225 2092.0275 1112.6425 1666.845 1408.65 834.815 1463.5125 1291.8925 31.47 678.2825 1049.805 685.95 756.5025 1028.555 1832.855 1989.36 1682.285 1037.53 1204.0625 1320.655 768.0025 757.6075 808.255 464.9475 681.21 838.5625 789.03 1481.275 1781.7425 1654.3175 1873.015 1817.435 1716.945 1617.9325 1351.955 1839.5025 2559.0475 2492.7575 1664.1675 1764.775 1863.0725 1736.68 1781.0875 1851.49 1794.7725 1904.93 1974.6525 1999.0875 2157.83 2161.2075 2052.1875 1774.3475 1642.405 1807.0225 2079.555 2524.65 2022.39 1733.53 1655.555 1735.985 1904.075 1909.065 2011.78 2004.2675 2046.65 2018.0175 2145.825 2234.0325 2309.7425 2288.0975 2277.535 2412.8625 2556.255 2245.8475 2212.2375 2124.3775 2265.8325 2819.4575 2857.3275 2748.3625 2021.75 1856.3625 1796.5375 1847.915 1961.9525 1930.0125 1893.5175 1858.8175 1737.47 1632.9775 1541.3775 1456.2375 1378.1925 1312.725 1265.825 1219.0675 1173.2275 1122.335 1073.4825 1045.3 994.645 961.1675 932.8875 900.7375 910.29 892.93 869.0675 833.9625 796.7675 762.9975 737.855 695.4325 659.9925 631.715 589.9075 564.5275 491.81 438.0875 418.44 399.74 415.2 396.615 396.1425 361.49 341.05 313.655 296.2675 292.105 288.4 276.0025 268.3525 269.4725 253.1 243.8625 209.4325 199.2575 213.3225 227.875 205.1175 231.8075 280.7275 310.8225 340.085 371.95 381.485 399.6175 402.8275 394.2175 361.7375 388.03 370.865 320.2925 263.485 268.1275 234.0225 259.3325 212.1575 242.4075 267.1125 219.9425 183.3225 221.8675 178.5675 137.605 115.4275 89.8325 87.6775 93.465 108.285 84.355 79.655 81.34 84.2575 90.3425 121.8825 110.0675 109.105 124.4025 134.6925 156.86 153.8825 132.5325 168.7 163.065 157.6575 173.24 163.13 197.55 212.6775 230.21 209.1625 185.6675 194.645 205.565 261.7 233.595 239.2175 312.4975 341.0325 369.595 480.535 449.5825 432.865 495.325 559.7025 456.62 425.2925 409.555 427.11 441.755 454.425 439.5 408.88 463.77 497.405 471.645 513.61 763.1925 852.62 991.045 1064.28 920.37 881.6425 723.0675 530.6325 367.8025 343.265 348.5375 318.2425 256.0725 219.3525 215.2425 202.5475 179.71 163.4625 168.655 176.8475 163.9775 139.635 121.215 117.0325 102.97 88.6425 69.455 35.3975 36.0075 29.2175 20.505
-2147483647 -2147483647 -2147483647 -2147483647 -2147483647 -2147483647 -2147483647 -2147483647 -2147483647 -2147483647 -2147483647 -2147483647 -2147483647 -2147483647 -2147483647 -2147483647 -2147483647 -2147483647 -2147483647 -2147483647 -2147483647 -2147483647 -2147483647 -2147483647 -2147483647 -2147483647 -2147483647 -2147483647 -2147483647 -2147483647 -2147483647 -2147483647 -2147483647 -2147483647 -2147483647 -2147483647 475.315 925.4325 603.6075 255.925 212.36 451.21 840.44 852.5675 544.015 174.55 95.6325 69.16 64.7225 70.8675 84.26 100.415 169.235 602.9925 1389.09 2329.9175 2291.6225 2684.0125 2193.6525 1396.8 1890.7175 1475.39 896.82 1033.66 1884.6725 245.88 629.245 1066.155 693.4275 866.395 836.3025 1183.41 2195.84 2257.5625 1385.4075 746.27 626.3575 668.1575 800.31 684.02 476.0325 995.8025 839.3575 682.2975 1547.915 1798.115 1595.3525 1466.1225 1516.905 1372.1375 1381.7075 1603.19 1475.665 1849.3725 2429.1425 1824.8925 1701.9 1691.915 1634.2525 1655.94 1680.5425 1693.04 1805.3925 1900.93 2003.5475 2039.3575 2132.5175 2154.2 1852.455 1700.19 1972.165 2199.085 2445.5375 2323.79 1773.635 1687.7325 1731.4425 1804.1325 1867.5475 2001.2375 2065.6575 2139.02 2062.005 2133.075 2212.1075 2293.8075 2454.985 2136.31 2041.8025 1995.455 1953.895 2016.9325 2275.7225 2605.7 3054.08 2805.6275 2539.4825 2158.8375 1920.6325 1816.9525 1781.0875 1854.015 1857.345 1769.615 1713.36 1661.8925 1562.4975 1488.0825 1412.7175 1347.0025 1300.6925 1262.7075 1218.6825 1164.59 1120.06 1081.415 1048.4525 1013.3175 976.8 940.21 936.7025 914.045 881.3625 835.8725 790.4275 760.265 734.795 713.495 704.115 720.415 681.1 610.275 557.405 544.5675 518.23 467.0825 390.805 371.9225 380.3975 366.4 336.06 340.2975 346.515 325.17 302.09 300.7625 293.43 271.0775 254.665 257.66 245.015 197.8275 200.965 194.575 205.535 197.4275 266.11 321.2225 331.69 344.125 381.065 378.7675 398.5725 403.28 441.885 437.555 466.6875 454.9825 368.81 322.2625 290.2375 234.1025 213.7925 204.81 229.52 240.6775 219.62 193.1075 170.4175 144.1725 117.4725 85.605 83.2525 92.64 105.76 84.4925 77.995 75.9 79.6425 81.76 96.61 98.89 95.65 104.6825 121.99 129.2825 153.995 136.495 140.085 147.21 192.2425 200.2275 221.73 183.655 176.765 193.985 166.8375 154.8475 169.375 172.77 195.685 200.6075 236.105 292.735 339.54 428.925 513.97 504.1 454.6975 498.995 597.5225 596.745 346.995 360.7875 399.215 400.92 378.1 385.35 368.46 385.99 466.6525 482.04 602.9925 701.5325 908.3725 980.9725 1062.1925 963.6825 766.3625 472.8775 375.3425 351.5675 315.3925 296.2175 287.2025 266.895 241.905 259.685 241.385 222.16 207.1675 201.475 196.585 172.5925 147.3125 126.91 121.395 109.23 84.8325 71.89 50.59 31.6925 21.4825 25.3825 23.9375
-2147483647 -2147483647 -2147483647 -2147483647 -2147483647 -2147483647 -2147483647 -2147483647 -2147483647 -2147483647 -2147483647 -2147483647 -2147483647 -2147483647 -2147483647 -2147483647 -2147483647 -2147483647 -2147483647 -2147483647 -2147483647 -2147483647 -2147483647 -2147483647 -2147483647 -2147483647 -2147483647 -2147483647 -2147483647 -2147483647 -2147483647 -2147483647 -2147483647 -2147483647 -2147483647 -2147483647 -2147483647 474.3225 834.465 503.86 307.95 253.8725 533.405 720.0125 437.775 243.5225 173.0375 64.63 56.34 60.7075 71.4875 92.5825 127.6075 278.1275 944.295 1938.5525 2018.9975 2456.9475 2211.6725 1282.5675 1537.9925 1739.4825 1287.7325 499.09 1931.5425 502.365 358.1825 1292.0975 952.0425 759.7825 917.9675 847.2875 1168.045 1658.885 1210.655 767.4925 597.7825 595.975 445.945 689.635 411.22 613.585 597.685 982.87 1423.93 1702.19 1516.455 1262.4225 1779.45 1771.535 1754.4775 1620.7175 1840.4825 1584.0225 1571.05 1530.735 1686.2175 1542.5575 1440.3375 1512.4575 1631.2475 1666.5775 1784.285 1863.7325 1875.37 1955.4875 1981.1 1974.8875 1815.7075 1740.56 1993.665 2223.4875 2270.455 2554.41 2066.71 1730.6325 1773.3825 1819.9 1866.9425 1926.53 1992.175 2058.5075 2140.96 2147.9475 2209.7475 2516.1275 2778.4725 2693.045 2693.205 2155.195 1822.54 2069.8775 2520.615 3090.0925 2723.805 2454.185 2312.5975 2165.065 1971.5675 1890.21 1789.5075 1819.2975 1778.2475 1705.345 1587.1 1511.735 1491.7275 1430.93 1369.7675 1319.9675 1273.715 1228.42 1205.3175 1171.6825 1124.6975 1084.385 1054.9625 1015.135 982.815 973.1 938.66 901.6075 874.145 841.955 818.765 810.2825 787.4175 726.745 735.6275 722.8075 663.0075 632.155 582.1425 548.1225 555.3175 505.2675 415.795 361.3875 354.355 348.31 332.6775 314.39 318.5775 312.2425 290.94 281.2375 267.3225 261.34 261.9525 257.96 227.63 214.7475 212.14 180.1625 186.3625 213.53 280.43 314.545 314.32 337.935 364.68 383.13 401.265 429.14 464.6325 478.8 555.89 495.3075 368.0775 338.1375 303.29 264.14 272.9425 250.9075 185.365 210.08 203.8775 170.7775 134.34 125.38 82.97 78.6875 80.9525 117.04 79.105 73.55 73.69 74.8775 76.575 78.56 101.8325 96.9925 102.2375 110.6525 120.96 127.07 138.9425 141.5025 147.59 146.52 190.2675 231.315 243.4675 223.39 205.8575 196.0175 186.7 170.015 185.38 231.75 240.42 228.045 251.07 304.69 386.3925 537.7475 561.1475 520.0475 468.8725 425.52 528.3 388.625 307.905 343.2725 311.0225 337.4475 379.035 342.4775 374.985 419.985 604.62 825.5375 836.7475 959.6775 1193.355 1162.95 870.6225 664.88 453.6725 411.285 440.3125 351.8075 292.2175 252.285 245.8825 262.755 278.3825 264.32 237.6125 207.0825 183.475 197.6275 186.065 133.79 97.53 122.245 106.58 87.3975 81.675 60.03 36.7475 28.13 29.435 17.7975 22.0125
-2147483647 -2147483647 -2147483647 -2147483647 -2147483647 -2147483647 -2147483647 -2147483647 -2147483647 -2147483647 -2147483647 -2147483647 -2147483647 -2147483647 -2147483647 -2147483647 -2147483647 -2147483647 -2147483647 -2147483647 -2147483647 -2147483647 -2147483647 -2147483647 -2147483647 -2147483647 -2147483647 -2147483647 -2147483647 -2147483647 -2147483647 -2147483647 -2147483647 -2147483647 -2147483647 -2147483647 -2147483647 -2147483647 493.1025 457.9475 361.8775 318.2 356.91 586.6525 680.595 612.5625 253.8525 110.8375 60.025 59.2125 64.395 92.0925 144.65 292.34 898.7 1771.895 1957.7725 2178.34 2106.645 1293.0475 891.8475 1300.725 1290.1775 598.7575 1326.545 761.965 213.305 541.205 824.2875 518.965 856.985 888.8825 917.465 1348.945 1363.02 959.745 928.54 653.5825 573.8975 701.4925 715.555 846.76 1061.875 1544.2525 1149.525 1252.2625 1437.89 1441.5225 2012.2725 1861.4375 1777.185 1728.01 1737.235 1877.1975 2053.205 2136.065 1999.1025 1676.02 1341.3675 1459.9625 1723.7525 1777 1762.96 1804.94 1828.6625 1875.5925 1996.515 2131.8125 1864.4 1814.81 2066.14 2363.9675 2283.145 2388.555 2220.2475 1795.285 1840.065 1894.3875 1922.095 1975.845 2030.16 2078.8925 2058.865 2051.535 2102.6125 2297.2775 2554.6725 2715.2225 2760.48 2127.2175 1790.54 2111.5425 3008.6525 3298.2025 2582.92 2206.0325 2129.58 2130.9825 1929.7625 1845.9025 1697.48 1743.185 1727.225 1615.885 1437.5025 1422.7825 1501.7425 1421.15 1334.495 1290.0225 1243.1425 1195.435 1193.5125 1177.3 1138.1025 1093.585 1056.915 1023.665 992.045 915.8525 843.6775 825.16 808.7275 789.51 753.0675 740.2025 731.8925 704.2825 679.64 656.105 640.3325 596.1375 576.785 567.2875 541.5125 522.335 459.3875 383.21 350.8125 329.43 324.3475 322.6075 312.93 310.39 290.0875 289.115 283.165 288.465 274.0275 257.6925 233.7025 203.98 211.32 181.75 172.825 199.71 248.8125 265.57 304.2925 339.2175 413.855 453.81 507.93 509.3975 548.845 597.69 582.88 524.3825 414.79 376.1825 298.245 347.2825 331.92 256.8275 208.5875 184.8825 184.55 184.67 138.125 79.575 74.0975 74.6525 99.4125 93.82 70.5775 69.5575 72.1575 73.6525 75.24 84.4075 96.0575 95.7875 99.0425 115.81 131.99 149.705 151.1025 158.3175 151.3 144.11 168.5825 208.9375 223.8375 247.315 258.0925 226.7675 233.825 213.555 175.11 211.475 277.7975 318.4775 290.7425 303.3525 370.155 542.3875 564.6325 564.4775 498.2 315.01 277.0675 292.3925 298.7425 289.385 306.93 308.88 352.325 450.4025 514.8475 643.86 722.2975 960.7925 972.3275 935.3475 915.2775 857.815 489.9625 396.18 427.1125 375.7125 338.1025 290.1375 256.1425 235.795 228.9 242.7525 251.4075 238.185 235.9275 209.96 189.505 165.2575 145.345 99.1525 118.7325 99.4725 107.9725 85.085 67.9975 49.33 33.8725 24.1725 23.55 23.0075 15.0175
-2147483647 -2147483647 -2147483647 -2147483647 -2147483647 -2147483647 -2147483647 -2147483647 -2147483647 -2147483647 -2147483647 -2147483647 -2147483647 -2147483647 -2147483647 -2147483647 -2147483647 -2147483647 -2147483647 -2147483647 -2147483647 -2147483647 -2147483647 -2147483647 -2147483647 -2147483647 -2147483647 -2147483647 -2147483647 -2147483647 -2147483647 -2147483647 -2147483647 -2147483647 -2147483647 -2147483647 -2147483647 -2147483647 -2147483647 342.2 468.465 332.1875 265.5425 351.1825 498.545 517.645 317.9025 143.295 78.15 65.685 70.7975 100.7375 188.49 347.755 923.985 1648.8175 1279.55 1529.4625 1579.395 1200.83 686.365 751.9475 755.8025 748.315 790.1925 767.85 757.8425 291.7975 316.6775 392.3275 678.1025 1315.3275 1034.395 884.23 1082.835 977.81 853.4625 845.4275 571.735 703.6275 876.8025 1188.925 1013.68 1427.0675 1449.99 1183.4275 1120.3225 1511.7775 1910.84 1880.39 1778.055 1716.285 1715.26 1791.095 1884.625 1995.74 1968.27 1652.2025 1426.0775 1354.28 1550.6725 1644.9175 1703.1575 1700.1825 1736.25 1887.105 1998.015 1997.4525 1983.175 1969.5925 2105.2225 2331.6275 2195.0675 2191.21 1926.045 1978.9125 2051.6475 2039.3975 2018.0575 2044.47 2106.96 2060.6475 2056.1225 1967.5525 1994.9775 2169.4475 2198.495 2458.2975 2256.7975 1953.165 1985.1075 2276.295 2862.6775 2974.84 2507.6025 2166.8725 2041.7925 1999.0675 1943.495 1838.5075 1636.3175 1601.065 1560.2575 1595.215 1353.07 1377.835 1439.0275 1400.2325 1327.7725 1249.575 1194.5725 1134.8425 1135.2625 1164.53 1142.0275 1069.9975 995.22 953.015 916.045 888.16 900.725 914.3375 908.9475 858.2875 820.025 774.41 734.9 712.45 673.5225 632.2375 578.8675 564.19 548.5475 554.77 525.245 513.065 479.0925 431.56 367.6525 357.725 352.2425 327.3975 344.15 325.8625 296.275 287.1175 272.2475 263.2375 253.405 244.1475 234.265 234.5775 204.245 181.8125 180.16 181.2675 240.0175 256.02 323.4825 354.1825 400.1475 445.045 496.65 551.8525 497.19 515.4625 529.975 469.635 526.045 507.11 498.175 399.0975 366.275 356.62 319.52 262.605 167.1475 112.56 97.5925 70.8675 71.125 73.0225 84.7 68.4125 67.845 67.2975 68.345 71.3125 78.34 109.0675 108.4675 95.9275 105.335 120.495 142.845 157.545 162.2775 162.32 152.3275 179.365 193.505 203.7 208.8075 212.625 245.92 233.6925 256.505 239.65 207.7775 253.77 308.8175 326.61 301.005 338.85 449.61 534.2525 498.3575 505.0425 283.6175 282.3 277.5475 277.35 291.395 317.715 437.7025 511.3625 629.3775 990.1525 896.3975 1017.01 750.7075 671.155 1071.88 1199.05 625.9575 453.4 357.74 381.3375 335.2775 308.5125 280.86 271.9375 246.52 225.2625 219.8475 221.26 227.3875 190.895 210.6425 187.4375 186.305 151.5975 112.2825 100.7275 124.0625 86.4675 84.6925 77.295 60.995 41.0425 34.81 24.985 17.0225 17.6025 17.8925
-2147483647 -2147483647 -2147483647 -2147483647 -2147483647 -2147483647 -2147483647 -2147483647 -2147483647 -2147483647 -2147483647 -2147483647 -2147483647 -2147483647 -2147483647 -2147483647 -2147483647 -2147483647 -2147483647 -2147483647 -2147483647 -2147483647 -2147483647 -2147483647 -2147483647 -2147483647 -2147483647 -2147483647 -2147483647 -2147483647 -2147483647 -2147483647 -2147483647 -2147483647 -2147483647 -2147483647 -2147483647 -2147483647 -2147483647 -2147483647 154.0725 416.7 366.115 324.5425 400.93 530.455 503.2 286.4425 143.9025 77.5475 87.3525 119.02 222.805 380.8975 932.5675 1269.345 1313.96 1320.87 1594.125 1053.9325 830.4475 830.335 653.3875 799.8875 797.6675 1067.8875 893.925 731.67 736.4425 415.23 459.4875 896.7275 1038.3225 1341.4575 900.78 1314.9225 1339.1375 1050.84 564.1225 660.095 937.545 1203.3375 947.165 968.205 1487.895 1488.74 1437.33 1661.465 1745.4475 1879.8975 1899.67 1759.235 1752.4275 1801.585 1888.2025 2019.45 1957.045 1802.0925 1561.165 1375.7275 1475.515 1530.485 1580.9075 1638.3625 1735.955 1858.855 1885.0225 1854.565 1926.505 2027.2025 2163.06 2273.78 2106.45 2039.3975 2054.8225 2121.5375 2204.465 2298.0875 2224.435 2208.35 2127.3825 2027.485 2089.2575 2040.0575 1914.115 1837.855 1790.5075 1968.0575 1736.18 1786.515 1921.8775 2164.235 2346.91 2465.9475 2278.3525 2037.0575 2055.4825 2033.7575 1972.1175 1773.44 1476.2775 1380.6375 1376.505 1433.915 1353.3825 1297.3175 1327.9025 1299.115 1249.9875 1182.2525 1117.0125 1072.2025 1044.4675 1046.1225 1063.565 1067.67 968.2775 989.825 980.545 971.125 971.87 971.635 933.6775 900.325 832.155 784.2725 766.5925 739.075 670.74 598.635 575.1175 533.4375 506.29 506.7375 520.165 491.0525 478.555 452.595 428.57 399.8775 384.17 360.5675 347.815 335.28 311.7975 280.5875 269.8075 263.745 251.735 233.86 233.43 211.3225 212.845 195.6675 190.1175 174.34 208.19 264.9775 282.76 267.585 254.845 296.9025 272.7325 243.435 361.4175 352.05 358.075 326.88 358.325 390.26 414.8375 314.285 238.2625 216.0375 215.085 243.8425 217.995 163.38 85.9925 67.8825 68.2475 71.4475 82.575 65.49 65.3275 65.6525 68.2 76.5075 94.1625 90.5975 95.0175 106.2325 118.01 132.13 134.045 142.3 157.945 140.66 146.3825 184.195 224.79 263.8675 256.3225 222.975 218.655 213.6625 211.81 221.855 260.095 310.3625 338.72 321.395 365.665 524.5625 563.7425 443.575 515.6875 315.5425 254.4425 303.9575 313.42 277.6375 329.0175 609.49 873.6725 1139.755 1301.4925 1205.23 1127.29 931.9525 825.8075 691.5375 840.3825 750.045 485.6625 416.73 502.6825 414.135 324.28 272.9675 284.5225 246.7875 249.7 241.2025 231.9175 204.87 203.1775 201.355 191.7475 145.095 138.8375 103.1375 81.015 98.18 105.2725 82.725 68.1 57.7975 51.4925 34.5475 29.0325 24.2625 20.6575 12.085 10.45
-2147483647 -2147483647 -2147483647 -2147483647 -2147483647 -2147483647 -2147483647 -2147483647 -2147483647 -2147483647 -2147483647 -2147483647 -2147483647 -2147483647 -2147483647 -2147483647 -2147483647 -2147483647 -2147483647 -2147483647 -2147483647 -2147483647 -2147483647 -2147483647 -2147483647 -2147483647 -2147483647 -2147483647 -2147483647 -2147483647 -2147483647 -2147483647 -2147483647 -2147483647 -2147483647 -2147483647 -2147483647 -2147483647 -2147483647 -2147483647 -2147483647 -2147483647 321.12 404.115 556.5925 562.92 639.4225 741.0425 335.8325 116.5475 89.3925 102.9525 143.8475 220.6875 617.405 1309.3875 1621.1275 1588.9325 1232.1175 924.24 922.7225 1041.925 905.275 1055.78 1068.375 1027.06 1034.44 1017.5275 929.12 623.4125 451.2275 1020.9525 1188.835 1404.9275 1044.6325 1113.715 1325.4975 982.57 558.7625 414.595 1006.65 1188.3775 1291.315 971.855 1227.67 1402.77 1638.8125 1680.53 1634.7975 1742.115 1855.7575 1746.45 1790.3775 1899.7825 2075.905 2282.825 2445.5075 2198.065 1820.4275 1516.8525 1438.1675 1501.845 1526.6075 1606.335 1773.0375 1901.9975 1822.825 1791.385 1863.1225 1927.7925 2038.0875 2118.795 2047.3625 2031.0775 2133.65 2286.4775 2309.5775 2301.135 2169.3975 2188.2375 2225.8075 2262.795 2550.3625 2182.6575 1879.4025 1851.53 1786.0925 1692.3575 1661.26 1810.295 1877.9375 1923.515 2141.0875 2140.75 2007.41 1910.4025 1879.465 1805.5875 1695.44 1525.1325 1403.3825 1318.3725 1288.8475 1353.45 1265.035 1213.2225 1197.8725 1173.2375 1141.0975 1104.5525 1138.9325 1135.855 1094.715 1054.2625 1002.9675 992.2325 1010.205 1071.5025 1048.0675 1032.185 1005.505 953.1525 877.1025 817.8725 770.5975 741.975 687.685 666.37 651 629.79 614.74 567.1375 510.765 469.525 501.15 492.585 479.7825 469.3375 429.5625 407.675 400.8775 382.99 379.605 364.3025 335.2225 311.21 299.0375 288.395 270.505 261.4475 245.9725 224.61 200.8225 193.5325 202.5725 180.8925 168.9475 154.9725 168.5825 182.7325 152.185 136.41 144.15 172.35 147.6175 133.3175 134.175 191.095 199.7225 227.435 214.8775 217.29 219.815 222.52 219.535 158.1675 115.5325 143.29 81.8725 64.55 65.3825 68.275 86.0475 62.135 64 66.51 72.2325 101.5425 109.8025 99.4525 102.0325 114.1525 116.68 147.81 150.9375 145.9875 152.465 137.6325 145.6475 185.625 240.225 264.855 284.36 295.34 276.63 266.7075 267.425 264.755 273.3075 310.555 324.9625 399.5925 559.7475 567.46 489.45 501.51 325.2525 236.2925 262.0325 275.68 308.47 350.4075 716.5875 750.625 764.22 723.32 817.8 866.6125 1221.2125 1218.1225 1055.73 719.4625 745.865 600.8375 320.8 305.6825 341.3 287.3025 284.64 260.13 238.9625 229.575 218.3225 204.79 202.905 189.415 165.14 192.2325 171.1475 140.49 108.405 119.95 108.2925 81.255 65.8175 70.46 50.655 38.73 34.5775 35.305 29.2775 19.2875 14.4075 13.4725 15.4875
-2147483647 -2147483647 -2147483647 -2147483647 -2147483647 -2147483647 -2147483647 -2147483647 -2147483647 -2147483647 -2147483647 -2147483647 -2147483647 -2147483647 -2147483647 -2147483647 -2147483647 -2147483647 -2147483647 -2147483647 -2147483647 -2147483647 -2147483647 -2147483647 -2147483647 -2147483647 -2147483647 -2147483647 -2147483647 -2147483647 -2147483647 -2147483647 -2147483647 -2147483647 -2147483647 -2147483647 -2147483647 -2147483647 -2147483647 -2147483647 -2147483647 -2147483647 157.45 298.5775 456.39 679.735 679.515 651.4225 780.09 432.3525 205.82 94.2275 101.0175 120.215 378.19 1015.735 1258.325 1416.695 937.4425 699.3925 939.81 907.245 901.3675 1071.39 954.84 1032.0825 958.2325 739.7375 548.2175 662.4125 368.1375 595.5525 1173.8675 1396.235 1373.8425 1465.8725 1255.1125 794.545 942.2375 381.6975 939.8075 910.9925 1144.9375 1118.94 1308.935 1399.6825 1604.615 1656.84 1738.205 1595.4575 1679.73 1591.2375 1728.2775 2077.785 2133.78 2195.33 2337.9125 2227.5425 1933.215 1715.7925 1550.4 1449.9825 1467.9 1574.17 1718.11 1735.8075 1695.72 1715.4775 1754.575 1855.005 1861.53 1879.995 1988.1475 2111.9725 2163.0125 2171.3025 2417.955 2481.21 2323.3425 2050.3775 2263.47 2700.855 2374.42 1997.7925 1808.635 1761.235 1731.1275 1609.81 2159.9 2048.72 2013.885 1976.8775 2112.4975 2092.835 1919.7825 1753.325 1660.3 1589.295 1589.825 1511.025 1397.545 1429.1875 1449.0025 1320.98 1228.1675 1229.6925 1206.9225 1216.3675 1176.8825 1179.6925 1251.455 1241.2375 1221.46 1170.45 1119.53 1088.775 1093.6325 1076.5075 1054.86 1023.68 998.115 953.455 883.51 847.635 786.995 696.945 659.3175 625.6175 594.4725 563.25 556.4775 541.3725 525.865 470.0725 455.8825 447.1125 449.235 421.26 412.645 388.0525 396.69 369.07 354.295 342.05 332.64 311.7725 298.5875 293.1 263.3775 242.305 239.4375 231.3825 208.0525 194.6 220.2375 190.55 181.5 174.91 157.1375 144.0675 163.7925 172.9125 177.715 173.73 206.66 303.81 227 171.09 134.4075 129.6475 122.3425 136.465 131.01 143.7275 173.5425 139.9025 87.7025 68.8825 63.1475 61.43 63.4925 66.1025 87.7375 60.9825 62.28 65.4775 72.4825 84.375 96.2575 103.005 119.24 142.165 146.18 127.945 145.0375 162.4975 148.0075 131.375 178.56 213.5475 274.855 275.6025 276.95 288.4025 247.135 266.97 264.16 262.2375 276.2475 297.0525 301.1925 410.81 535.785 511.635 439.7475 440.4325 243.4 260.02 246.2375 304.135 419.725 585.86 883.39 892.665 907.0625 1003.835 769.005 949.1275 1026.2925 1177.375 831.68 775.3325 681.495 466.965 287.7625 273.885 259.96 245.5675 259.995 251.585 215.4725 219.485 223.92 191.66 175.6025 140.57 119.33 126.2325 176.39 157.82 130.7825 97.1225 90.6175 66.3975 41.5075 55.8075 55.475 51.7925 43.9725 34.925 24.915 20.0825 15.105 10.575 10.585
-2147483647 -2147483647 -2147483647 -2147483647 -2147483647 -2147483647 -2147483647 -2147483647 -2147483647 -2147483647 -2147483647 -2147483647 -2147483647 -2147483647 -2147483647 -2147483647 -2147483647 -2147483647 -2147483647 -2147483647 -2147483647 -2147483647 -2147483647 -2147483647 -2147483647 -2147483647 -2147483647 -2147483647 -2147483647 -2147483647 -2147483647 -2147483647 -2147483647 -2147483647 -2147483647 -2147483647 -2147483647 -2147483647 -2147483647 -2147483647 -2147483647 -2147483647 -2147483647 66.3525 265.5725 432.71 682.3875 710.0825 798.385 761.435 363.945 173.7275 158.91 172.9675 579.1925 1406.6575 1482.44 1155.265 810.8175 745.03 760.9075 818.02 734.39 733.56 926.745 936.47 623.8775 720.515 532.955 414.12 328.6725 514.2775 942.3775 950.0475 1451.93 1266.9825 1073.6675 748.13 626.83 252.535 789.6075 785.8575 932.61 1645.2875 1246.7075 1208.1325 1484.8 1584.99 1708.635 1768.345 1498.695 1609.5475 1594.025 1866.58 2038.1275 2039.6875 2138.0225 2150.165 2053.6775 1839.255 1676.5025 1545.93 1488.78 1518.6975 1578.3225 1627.9075 1628.5725 1688.415 1702.4825 1739.1875 1823.895 1943.0325 2019.5225 1981.545 2063.91 2159.8075 2189.8525 2387.19 2444.845 2153.1925 2062.9725 1992.0325 1912.4275 1843.29 1746.425 1692.53 1636.3025 1609.24 2109.3025 2105.9725 1932.2575 1946.365 2100.425 2092.1475 1912.2475 1788.165 1668.9125 1613.7075 1535.645 1477.7225 1451.2925 1421.4575 1371.9575 1341.695 1284.26 1236.825 1248.0325 1227.81 1213.8025 1292.8675 1275.8175 1253.83 1219.5775 1182.145 1152.9375 1117.5425 1081.51 1065.0425 1039.605 989.6675 921.9025 880.4625 820.875 763.54 700.5925 672.89 622.3575 597.74 576.2375 527.565 521.8025 501.0175 489.43 461.26 425.0125 422.81 411.8725 391.685 368.6775 350.2725 374.575 368.4925 343.33 347.09 323.905 304.7825 284.25 281.7025 258.8 261.0675 251.8825 223.285 208.45 213.9725 251.8125 250.06 251.2075 220.875 236.1875 156.92 235.065 212.1925 198.445 203.49 264.14 222.6 154.4875 133.5375 113.645 184.505 105.1075 97.425 103.4775 120.1225 106.425 82.6475 64.965 59.9975 57.18 59.32 61.73 65.0025 87.4725 59.29 59.4525 61.8075 75.8875 92.24 101.4 111.0375 126.375 148.3975 164.6575 144.5125 140.1125 149.125 151.425 147.9325 205.9325 250.6 272.135 235.995 250.205 256.725 248.4 222.255 244.9875 256.5925 268.7625 307.3325 423.865 434.4475 387.32 289.075 405.665 241.095 261.44 273.645 264.4225 438.555 541.2475 572.835 544.9375 629.07 844.8025 1107.1425 839.395 1065.9425 1044.5025 733.13 731.9325 510.405 392.465 328.7725 280.825 260.61 248.675 214.6625 213.3025 227.8775 200.165 190.1375 204.1825 187.295 157.18 127.215 86.7275 87.8175 130.58 121.6975 115.81 101.5425 82.69 55.7775 39.03 46.1675 49.015 46.67 43.34 36.4475 36.8375 23.9925 14.39 12.62 8.385
-2147483647 -2147483647 -2147483647 -2147483647 -2147483647 -2147483647 -2147483647 -2147483647 -2147483647 -2147483647 -2147483647 -2147483647 -2147483647 -2147483647 -2147483647 -2147483647 -2147483647 -2147483647 -2147483647 -2147483647 -2147483647 -2147483647 -2147483647 -2147483647 -2147483647 -2147483647 -2147483647 -2147483647 -2147483647 -2147483647 -2147483647 -2147483647 -2147483647 -2147483647 -2147483647 -2147483647 -2147483647 -2147483647 -2147483647 -2147483647 -2147483647 -2147483647 -2147483647 94.7675 125.2725 377.525 627.3275 976.1475 893.0575 822.435 1005.1175 1133.22 1216.71 873.2375 1087.8875 1329.0975 1062.17 830.455 766.61 721.4825 756.465 857.57 772.9325 701.31 730.53 720.055 617.41 563.7675 783.8575 577.83 659.67 604.8625 700.515 1155.62 947.1325 836.82 817.12 683.62 412.4 178.28 514.335 761.8425 767.585 1525.38 1175.495 1031.635 1469.3725 1707.535 1742.12 1860.8425 1525.7675 1399.2275 1414.0475 1356.785 1435.6725 1545.5875 1722.5625 2133.9225 2228.215 2026.4325 1783.2025 1691.3975 1597.005 1557.045 1550.22 1567.995 1591.02 1638.6625 1676.9725 1782.5325 1949.8425 1933.095 1924.94 1998.3 2172.605 2229.2675 2236.8075 2303.1225 2286.395 2148.71 2211.96 1980.825 1817.3275 1737.2275 1668.5025 1655.1325 1559.22 1619.605 2033.425 2157.64 1909.865 1909.7275 2052.8675 2061 1922.4 1782.7175 1685.375 1616.96 1491.4125 1451.3625 1488.365 1510.245 1564.9025 1390.24 1351.655 1347.2175 1427.2 1386.1925 1340.2875 1305.4075 1273.995 1233.5075 1188.955 1161.1425 1145.93 1113.26 1066.81 967.6725 933.1925 953.785 824.4525 844.6875 793.675 738.5175 680.4075 635.375 602.97 567.5 529.2725 502.8525 485.9875 478.17 458.935 457.965 482.0675 496.16 417.3675 419.89 397.7125 364.115 334.57 330.8975 318.795 319.2475 315.295 314.2825 293.0225 274.8625 255.7725 254.65 253.23 223.42 220.7025 211.495 246.1275 279.02 223.6225 208.2375 176.095 212.8675 291.3975 315.8425 255.595 341.9925 264.2875 209.3725 215.395 214.9575 203.3775 220.37 171.0975 134.8275 97.915 116.26 93.715 83.0925 71.1675 62.5775 55.7525 56.59 59.495 61.6775 69.575 58.035 59.6175 61.495 84.955 105.26 107.8325 126.02 150.98 156.6 176.055 154.8825 153.63 138.06 156.9325 161.945 178.8975 200.6725 190.0125 203.1725 210.1425 225.7525 213.045 246.295 257.1375 240.4875 287.8975 382.4825 423.005 313.915 258.12 401.1125 371.7575 243.1025 274.4025 254.3425 318.98 739.3225 593.3525 560.62 600.845 663.7725 773.515 832.665 760.08 687.34 535.065 319.89 340.8375 326.81 319.56 281.5225 246.9975 229.515 200.4525 174.275 165.77 191.565 186.02 178.285 184.93 192.4975 166.3425 115.71 119.51 88.2875 91.8925 106.0475 86.765 74.9425 60.265 46.575 31.5325 33.97 37.3125 38.01 37.95 25.2725 23.87 21.0175 16.6925 11.5475 10.7475
-2147483647 -2147483647 -2147483647 -2147483647 -2147483647 -2147483647 -2147483647 -2147483647 -2147483647 -2147483647 -2147483647 -2147483647 -2147483647 -2147483647 -2147483647 -2147483647 -2147483647 -2147483647 -2147483647 -2147483647 -2147483647 -2147483647 -2147483647 -2147483647 -2147483647 -2147483647 -2147483647 -2147483647 -2147483647 -2147483647 -2147483647 -2147483647 -2147483647 -2147483647 -2147483647 -2147483647 -2147483647 -2147483647 -2147483647 -2147483647 -2147483647 -2147483647 -2147483647 62.53 187.765 303.2725 505.4875 891.6 1284.735 1375.645 1208.6525 1524.295 1773.5375 1496.9125 1073.8 1100.97 879.4125 732.2925 712.4775 737.0525 881.2125 946.6525 828.2175 836.75 945.705 1045.8225 1116.3775 870.015 690.64 653.27 608.69 736.4325 1046.2975 973.555 777.4475 590.62 849.4775 621.7575 608.4525 289.55 278.9125 431.485 617.6725 1134.185 1167.8975 783.23 1326.19 1293.1175 1618.135 1677.5925 1558.2225 1495.4575 1462.215 1641.2225 1447.85 1139.9175 1343.435 1871.105 2217.95 2100.615 1938.105 1851.78 1760.75 1731.62 1745.7375 1704.455 1636.06 1636.785 1685.1375 1734.7175 1786.655 1803.0425 1938.62 2007.575 2091.77 2173.41 2247.4925 2288.6675 2193.7875 2307.785 2356.8425 2144.2975 1871.6375 1967.65 1729.645 1578.58 1510.25 1605.7925 2203.78 2027.5525 1881.2525 1858.5375 1930.64 1970.915 1918.915 1811.9575 1711.93 1609.205 1528.745 1414.655 1365.9775 1419.31 1521.7725 1476.64 1460.2425 1431.68 1409.3275 1379.23 1346.6325 1290.3125 1243.655 1209.94 1181.045 1173.26 1159.66 1117.835 1076.5825 1042.1475 935.855 796.295 757.655 718.9475 734.465 673.185 617.4325 584.245 562.7375 531.2775 496.9 470.5825 441.3975 452.1875 436.6875 447.26 523.3675 485.38 392.5275 381.43 391.265 402.4525 365.415 331.18 311.765 287.23 304.9725 338.5375 314.905 266.435 236.1625 230.6625 233.04 232.38 240.8925 268.415 261.58 293.18 290.1725 285.3975 329.9625 331.6975 406.7375 383.4875 332.6275 320.4025 311.145 314.445 276.03 297.24 306.725 244.825 188.975 162.92 127.88 93.84 75.1225 71.1125 68.8 66.5025 60.185 53.725 54.6125 58.6825 67.76 57.34 58.155 60.38 77.9675 89.42 106.0675 139.125 152.3775 143.27 149.3275 161.53 163.7675 148.635 157.67 169.98 171.375 172.1125 163.765 166.6625 173.435 181.04 194.57 201.645 220.715 241.6225 253.6125 333.4575 287.7225 237.5725 405.485 405.095 411.05 286.8225 307.3 224.2 308.685 534.16 594.8925 703.635 778.28 777.4425 741.175 598.27 543.5325 406.985 320.29 261.29 273.685 280.5525 271.735 258.06 219.36 199.175 172.2425 174.2925 150.0925 172.585 164.0975 159.42 168.4625 175.13 160.95 124.66 84.6575 58.765 68.6525 69.49 62.18 58.5925 50.7425 43.845 29.7 27.2025 26.0975 27.56 22.2075 12.2475 17.2275 20.05 7.925 10.4475 7.4275
-2147483647 -2147483647 -2147483647 -2147483647 -2147483647 -2147483647 -2147483647 -2147483647 -2147483647 -2147483647 -2147483647 -2147483647 -2147483647 -2147483647 -2147483647 -2147483647 -2147483647 -2147483647 -2147483647 -2147483647 -2147483647 -2147483647 -2147483647 -2147483647 -2147483647 -2147483647 -2147483647 -2147483647 -2147483647 -2147483647 -2147483647 -2147483647 -2147483647 -2147483647 -2147483647 -2147483647 -2147483647 -2147483647 -2147483647 -2147483647 -2147483647 -2147483647 -2147483647 112.035 201.7725 261.8025 327.795 465.6375 777.7925 919.575 1329.895 1387.8875 1402.435 1284.8825 816.9625 766.315 962.395 1015.195 850.0175 840.3275 890.405 929.4475 883.8025 938.9425 1101.3325 1047.7725 1148.83 1074.275 932.875 891.3175 511.785 329.115 367.845 389.885 409.93 807.0325 842.6925 556.395 497.15 580.74 262.6625 658.175 680.85 745.205 962.165 689.53 898.01 1067.58 1158.5175 1198.1175 1497.7825 1707.9525 1647.3575 1547.45 1585.13 1145.3525 1177.55 1774.0825 2055.235 2135.985 2102.6875 2061.77 1970.58 1889.555 1821.93 1804.86 1720.285 1717.4425 1695.2575 1731.3275 1727.4175 1790.06 1880.1075 2017.77 2111.545 2108.65 2218.71 2237.795 2203.895 2330.5 2311.4575 2097.6975 1940.09 1934.2475 1673.775 1543.6275 1501.2525 1616.39 2244.91 1984.74 1890.405 1869.92 1944.62 1913.6575 1899.845 1828.77 1703.8125 1603.8525 1512.895 1428.6475 1326.205 1318.725 1396.6675 1411.82 1398.5675 1401.6325 1384.7675 1355.35 1314.085 1271.565 1244.875 1221.7025 1195.1125 1168.0425 1139.5925 1096.765 1059.03 1029.4425 978.815 873.5725 727.245 661.9275 614.855 589.2575 561.5075 541.3875 514.6425 494.2875 466.825 438.915 413.3475 404.8625 407.6725 400.065 394.4975 371.88 344.9925 346.805 348.695 374.755 354.32 332.4975 304.655 283.415 293.2075 356.7825 356.57 267.375 211.695 206.715 208.66 262.11 270.2675 302.62 292.41 297.3175 337.5925 388.8375 383.4675 416.2525 363.515 385.435 332.4775 335.89 266.5825 228.94 224.0025 201.415 233.29 196.4575 148.415 124.4025 112.87 85.2775 70.92 67.2125 62.9125 64.0175 61.17 54.6475 53.23 55.71 62.84 67.165 54.31 58.735 91.08 94.6925 121.1025 121.0075 109.7475 123.5625 133.5625 144.9925 158.0975 128.0325 123.1875 155.1075 186.8525 216.94 235.08 192.36 196.7825 207.3325 197.4025 181.14 184.3775 215.7075 218.975 260.2125 235.59 372.625 411.3675 444.74 374.4175 269.4375 297.0275 212.245 242.5175 384.37 542.375 657.36 556.06 483.2075 477.155 427.2025 392.555 261.1275 250.0475 234.425 235.9625 246.1425 243.0875 222.83 213.9525 183.3225 155.9925 139.3375 132.2725 160.4925 151.9075 133.26 164.265 155.795 120.4425 119.7925 85.95 53.7 35.4175 49.8175 46.0875 45.49 41.865 35.6375 36.9575 27.525 19.6725 18.3175 18.0725 11.46 7.0425 14.9575 7.5775 3.445 -2147483647
-2147483647 -2147483647 -2147483647 -2147483647 -2147483647 -2147483647 -2147483647 -2147483647 -2147483647 -2147483647 -2147483647 -2147483647 -2147483647 -2147483647 -2147483647 -2147483647 -2147483647 -2147483647 -2147483647 -2147483647 -2147483647 -2147483647 -2147483647 -2147483647 -2147483647 -2147483647 -2147483647 -2147483647 -2147483647 -2147483647 -2147483647 -2147483647 -2147483647 -2147483647 -2147483647 -2147483647 -2147483647 -2147483647 -2147483647 -2147483647 -2147483647 -2147483647 -2147483647 -2147483647 -2147483647 -2147483647 -2147483647 -2147483647 141.055 252.075 469.6475 378.705 620.585 492.695 484.235 466.675 669.525 1070.1125 1349.0525 1529.3 1610.9575 1359.5025 1110.42 987.9875 1241.9075 1119.2575 1053.57 906.255 822.74 833.22 800.9575 568.705 341.17 220.4275 258.15 595.8225 549.9875 538.57 509.845 371.6275 310.5175 306.7275 515.84 537.9575 707.13 631.28 901.235 834.32 864.1425 1181.67 1313.385 1496.5 1897.42 1474.985 1243.36 1471.4225 1209.305 1642.4525 1953.3125 2001.565 2209.515 2259.1775 2169.3775 2033.5725 1961.8125 1868.5425 1784.6 1867.555 1923.185 1926.665 1851.19 1967.2875 2018.205 2005.12 2017.105 2123.65 2224.3575 2269.915 2285.9025 2307.625 2203.61 2038.9525 1887.7725 1815.605 1825.705 1525.7625 1511.795 1710.735 1881.1825 2045.935 2005.645 1965.23 1928.6125 1899.455 1922.0575 1805.06 1736.9925 1656.625 1535.04 1437.6825 1360.9225 1254.085 1268.2025 1302.9375 1325.48 1332.335 1333.635 1314.29 1280.7225 1248.98 1223.275 1194.7425 1162.945 1137.52 1117.935 1089.955 1057.9325 1022.675 1004.5725 979.63 825.7375 709.3475 654.875 625.995 583.885 568.56 530.11 493.2675 455.6275 438.8825 407.7975 387.455 400.99 361.685 346.84 334.895 322.5675 317.875 325.3375 326.67 318.815 320.32 312.735 356.8375 296.8825 323.0125 320.815 285.1225 206.865 193.575 194.17 228.9125 247.3925 245.315 244.6725 277.39 312.35 313.065 327.3425 271.825 321.27 361.1475 415.8975 403.0675 303.9325 276.3875 232.3225 196.535 177.7225 144.5125 116.9025 94.82 100.6525 98.985 76.21 65.2975 60.01 60.62 59.69 56.4025 51.82 49.06 50.1675 50.3575 50.0475 49.5475 78.515 92.22 95.6625 114.1375 140.395 120.485 107.775 139 106.235 116.57 107.93 148.3275 192.685 232.8025 262.125 270.645 235.0175 228.6725 198.16 202.1625 240.625 283.89 262.3 233.4575 316.6675 354.545 349.035 346.51 234.6575 252.655 219.9275 242.52 251.1875 381.895 403.715 436.2375 397.71 372.265 379.3 335.675 262.0675 233.61 248.5 222.9125 214.135 220.5775 221.345 193.0675 182.76 181.035 161.3375 131.715 119.6975 133.1675 138.355 109.9325 106.405 115.8525 99.735 97.7075 80.17 54.005 29.515 33.6225 32.95 34.9675 33.435 31.6925 28.1875 28.3825 20.6325 9.3575 7.965 8.8 8.305 5.0825 -2147483647 -2147483647 -2147483647
-2147483647 -2147483647 -2147483647 -2147483647 -2147483647 -2147483647 -2147483647 -2147483647 -2147483647 -2147483647 -2147483647 -2147483647 -2147483647 -2147483647 -2147483647 -2147483647 -2147483647 -2147483647 -2147483647 -2147483647 -2147483647 -2147483647 -2147483647 -2147483647 -2147483647 -2147483647 -2147483647 -2147483647 -2147483647 -2147483647 -2147483647 -2147483647 -2147483647 -2147483647 -2147483647 -2147483647 -2147483647 -2147483647 -2147483647 -2147483647 -2147483647 -2147483647 -2147483647 -2147483647 -2147483647 -2147483647 -2147483647 -2147483647 -2147483647 -2147483647 -2147483647 66.905 95.245 215.81 393.97 391.715 327.97 672.61 1076.445 1044.4 1276.5875 1689.2125 977.295 1208.5375 1738.49 2131.1075 2106.12 1530.79 1031.025 772.4 642.5575 579.415 646.56 503.82 282.175 308.295 232.0875 557.235 608.775 388.0475 489.695 314.9925 320.8 350.125 433.4875 491.2425 500.2275 715.435 874.2375 1074.26 1405.1375 1265.88 1573.53 1315.3175 1081.235 1380.995 1141.51 1317.295 1374.9825 1518.0925 1639.7225 1991.5825 2113.9975 2105.795 2015.4 2030.385 1962.4375 2044.23 2169.135 2239.4825 2049.3325 2074.5975 2200.98 2235.9925 2196.0775 2267.9275 2299.765 2300.0425 2363.3925 2493.465 2347.49 2255.2625 2191.0675 1983.09 1732.4675 1509.4925 1610.1175 1861.325 1886.595 1980.31 1954.105 2009.4675 2146.5475 2032.7725 1902.7175 1781.41 1670.875 1578.2675 1464.605 1365.6 1290.6125 1216.98 1275.58 1357.685 1334.595 1264.675 1247.925 1247 1235.675 1201.945 1172.6525 1151.2725 1136.395 1118.4475 1094.185 1068.21 1040.69 1015.9725 995.385 965.84 823.18 715.0875 650.76 603.87 561.2725 523.4725 505.7875 481.74 475.7675 445.3125 412.245 374.6275 360.28 348.9525 333.9875 319.9575 304.5525 297.6125 297.4025 295.365 279.04 292.47 289.0375 271.2475 251.3675 247.84 237.2075 228.4725 217.6425 184.92 178.78 172.8975 178.5075 167.2025 195.0725 216.035 216.0375 236.6075 261.885 299.3775 285.6575 235.5175 238.065 245.66 227.18 200.9675 168.145 157.2675 129.2475 95.0275 130.3775 80.4875 81.8 95.52 83.6425 62.5475 58.0825 58.9725 57.745 55.7925 49.01 46.4925 50.6375 48.9175 48.6125 46.945 59.2725 89.7425 108.4725 114.8 125.01 129.3975 125.5025 123.3875 94.3 107.27 105.1775 135.47 182.9825 228.4075 249.7275 266.67 241.055 241.77 262.8075 279.145 276.36 280.895 258.975 296.8825 320.3625 281.335 278.855 193.68 219.385 213.85 225.8075 250.16 291.1175 338.715 332.255 345.6675 365.25 350.9875 311.3175 262.2675 241.5575 225.3925 235.5775 214.54 183.805 186.3325 183.2675 182.4675 164.4825 155.885 146.49 152.5975 129.215 106.355 128.9475 131.755 91.8125 69.1525 86.6275 70.0925 57.5025 47.9675 36.53 19.115 24.7225 26.19 22.4825 31.6725 23.865 15.21 16.47 17.225 10.9575 6.3625 -2147483647 -2147483647 -2147483647 -2147483647 -2147483647
-2147483647 -2147483647 -2147483647 -2147483647 -2147483647 -2147483647 -2147483647 -2147483647 -2147483647 -2147483647 -2147483647 -2147483647 -2147483647 -2147483647 -2147483647 -2147483647 -2147483647 -2147483647 -2147483647 -2147483647 -2147483647 -2147483647 -2147483647 -2147483647 -2147483647 -2147483647 -2147483647 -2147483647 -2147483647 -2147483647 -2147483647 -2147483647 -2147483647 -2147483647 -2147483647 -2147483647 -2147483647 -2147483647 -2147483647 -2147483647 -2147483647 -2147483647 -2147483647 -2147483647 -2147483647 -2147483647 -2147483647 -2147483647 -2147483647 -2147483647 -2147483647 -2147483647 -2147483647 270.74 272.4525 277.605 164.17 140.8075 139.3425 187.4475 362.2225 363.75 366.4275 404.6075 837.035 1967.0025 2010.765 1186.9675 1148.2775 1118.99 1019.67 729.6525 523.3775 589.9725 602.72 405.9975 322.79 309.875 319.775 308.025 131.895 181.2525 325.4425 447.875 535.5125 628.905 833.135 748.1675 773.0925 823.5275 845.6025 1078.22 1134.9025 1094.6575 926.6225 1297.8 897.7325 1255.3025 1380.08 1216.905 1566.375 1694.18 1739.83 1796.59 1772.1325 1793.4475 1958.82 2131.475 2435.0675 2738.4325 2464.655 2312.595 2324.6275 2431.81 2374.3825 2448.3475 2525.855 2468.64 2272.465 2284.8675 2166.735 2161.9425 2175.92 2192.625 1922.3925 1530.76 1656.255 1800.5025 1688.515 1886.82 1904.9675 1913.8325 2007.5175 1983.6 1841.27 1690.8625 1599.1275 1500.215 1418.2675 1294.75 1237.8825 1195.775 1240.7075 1312.7375 1349.6725 1300.1 1270.0325 1235.0525 1215.3375 1205.6725 1184.5375 1158.4725 1113.485 1097.035 1074.6575 1054.2225 1025.0225 1001.9075 986.9275 962.1675 907.205 766.3325 689.895 628.8125 577.6475 561.645 534.3675 508.9525 444.4375 422.02 393.2775 375.4025 367.8975 350.825 332.515 318.115 299.8675 285.035 277.9625 276.9 266.1125 260.5975 282.8875 262.1075 244.6775 248.3225 242.525 211.0425 212.6575 201.075 193.22 170.2475 161.44 167.405 144.085 170.3675 152.105 157.47 175.3075 171.955 150.6775 154.37 149.9675 175.4225 156.67 161.995 131.1575 100.265 77.89 86.6225 113.93 106.6725 71.7575 77.215 85.2475 66.3675 55.8125 53.48 54.3325 54.415 49.55 45.455 44.7025 46.1125 46.5675 44.9675 65.4425 93.0925 101.0625 113.3125 121.3725 110.32 108.8725 126.83 89.705 83.455 93.7325 130.9175 155.6475 184.79 203.88 217.45 212.865 201.1975 214.0075 211.6125 203.8125 242.095 260.1125 294.085 246.4 216.335 180.555 201.655 248.145 261.025 255.555 254.35 268.9875 302.49 318.21 329.0425 325.8975 328.44 271.8125 243.045 238.5375 228.6625 190.5425 177.5175 160.73 152.0575 154.32 159.415 167.155 157.0975 143.97 133.8925 121.6825 111.7875 87.39 103.8975 84.8625 50.915 77.5525 51.94 47.2125 41.145 31.5425 21.4175 14.9575 17.72 24.995 29.64 16.8775 10.6775 16.195 15.2725 11.4825 3.04 -2147483647 -2147483647 -2147483647 -2147483647 -2147483647
-2147483647 -2147483647 -2147483647 -2147483647 -2147483647 -2147483647 -2147483647 -2147483647 -2147483647 -2147483647 -2147483647 -2147483647 -2147483647 -2147483647 -2147483647 -2147483647 -2147483647 -2147483647 -2147483647 -2147483647 -2147483647 -2147483647 -2147483647 -2147483647 -2147483647 -2147483647 -2147483647 -2147483647 -2147483647 -2147483647 -2147483647 -2147483647 -2147483647 -2147483647 -2147483647 -2147483647 -2147483647 -2147483647 -2147483647 -2147483647 -2147483647 -2147483647 -2147483647 -2147483647 -2147483647 -2147483647 -2147483647 -2147483647 -2147483647 -2147483647 -2147483647 -2147483647 -2147483647 -2147483647 -2147483647 -2147483647 19.055 33.045 44.0275 129.915 252.075 240.755 325.4375 522.7125 583.2075 879.485 989.1525 472.22 458.38 920.1775 1228.625 870.725 618.8125 541.3775 428.2825 303.24 444.8475 369.26 313.21 254.085 125.075 260.74 320.8575 364.3775 536.02 732.3075 665.22 728.73 702.99 775.5925 705.3375 766.2725 766.7275 580.765 724.6175 1016.0025 944.825 984.15 1284.28 1056.9 1611.0775 1670.0725 1532.16 1581.5975 1639.3075 1574.68 1796.33 1910.6325 2498.74 2978.665 2771.4175 2629.6975 2656.505 2343.03 2317.8875 2235.695 2317.9025 2188.2025 2148.6375 2152.1975 2159.7075 2426.435 2254.12 2150.645 2025.0775 1533.2225 1539.5725 1551.8125 1634.595 1908.9675 1867.925 1752.635 1918.825 1976.7225 1833.9375 1686.5625 1544.67 1430.5975 1359.7725 1321.8075 1234.0075 1164.065 1227.31 1329.685 1373.6425 1355.055 1326.22 1290.88 1244.1525 1198.59 1159.37 1132.815 1085.3375 1070.5925 1054.765 1035.665 1011.9725 989.605 968.745 949.8725 929.8975 823.99 725.83 657.33 613.8875 540.2975 510.3475 478.55 452.0175 413.085 388.3175 370.1675 350.235 332.445 315.2775 306.38 296.2625 287.7275 274.46 266.84 258.6325 253.165 257.9425 244.375 235.555 210.5325 215.2825 202.325 205.8 179.765 163.9125 161.2625 150.9325 145.8075 139.885 132.31 129.76 130.6975 124.875 121.15 112.415 116.3475 124.415 127.3025 129.15 111.2675 96.2075 83.86 74.06 61.3625 81.0225 96.595 79.9225 65.54 71.125 85.7575 68.1225 50.3875 47.8475 48.105 47.8675 45.44 43.375 41.68 41.63 42.03 60.4925 95.3425 85.61 93.7975 94.7075 102.1625 101.18 110.2975 87.3 75.48 98.9225 114.7575 136.045 159.98 165.08 183.455 163.03 161.65 160.825 170.3625 186.26 212.9825 308.27 244.2775 175.9125 192.4075 238.3625 276.0425 326.6925 311.19 337.9175 333.235 314.82 316.9325 299.0325 306.215 296.645 302.5375 272.42 245.925 219.115 215.8225 196.895 158.5525 151.7475 131.02 127.8175 142.895 139.1525 147.265 164.9725 165.82 156.4175 121.59 73.7675 58.5575 74.2575 52.2275 56.865 42.685 39.16 33.2225 24.8625 20.07 11.1175 12.115 18.2625 11.4825 5.74 1.4 3.86 4.16 4.995 -2147483647 -2147483647 -2147483647 -2147483647 -2147483647 -2147483647
-2147483647 -2147483647 -2147483647 -2147483647 -2147483647 -2147483647 -2147483647 -2147483647 -2147483647 -2147483647 -2147483647 -2147483647 -2147483647 -2147483647 -2147483647 -2147483647 -2147483647 -2147483647 -2147483647 -2147483647 -2147483647 -2147483647 -2147483647 -2147483647 -2147483647 -2147483647 -2147483647 -2147483647 -2147483647 -2147483647 -2147483647 -2147483647 -2147483647 -2147483647 -2147483647 -2147483647 -2147483647 -2147483647 -2147483647 -2147483647 -2147483647 -2147483647 -2147483647 -2147483647 -2147483647 -2147483647 -2147483647 -2147483647 -2147483647 -2147483647 -2147483647 -2147483647 -2147483647 -2147483647 -2147483647 -2147483647 -2147483647 17.74 7.62 28.44 188.975 695.3875 573.8725 489.4425 507.6725 646.99 1581.4675 1175.505 252.7625 84.9 506.38 942.9425 872.2025 703.9525 311.4775 169.24 340.2975 283.0575 206.04 209.555 166.14 263.9375 428.105 361.065 467.13 578.1925 691.645 684.4 709.1375 587.665 519.92 507.4625 473.21 441.0625 498.07 661.3825 696.6475 726.91 1247.26 925.855 991.455 1343.2975 1050.0975 1445.3575 1577.41 1526.31 1653.8725 1864.285 2234.5225 2476.005 2438.9275 2530.6925 2325.65 2271.22 1981.01 2319.6725 2418.3425 2177.22 2300.645 2389.215 2262.9675 2281.91 2298.0275 1752.16 1572.3375 1443.42 1472.93 1462.6275 1758.125 1878.4075 1713.5375 1662.3775 2026.5825 2004.0875 1840.24 1702.1075 1544.8425 1419.84 1331.185 1214.5025 1176.0625 1174.795 1233.1075 1276.21 1357.43 1347.9275 1308.735 1262.3925 1216.5725 1181.0275 1148.3275 1115.0475 1072.8225 1047.595 1024.7025 1010.65 996.3025 977.055 955.47 919.56 913.43 847.1725 753.21 698.7625 599.3975 553.3275 516.7625 476.34 444.4325 408.415 380.6675 366.705 356.805 343.885 323.1975 306.4575 289.93 289.5 286.995 275.8225 295.515 319.0775 300.64 263.5825 242.5675 235.025 213.81 216.2725 180.825 168.18 172.845 165.34 168.43 161.47 153.5775 154.0625 137.26 119.4825 114.72 117.66 122.88 105.0875 97.0575 94.6275 120.645 113.705 92.1075 81.5875 75.93 59.9625 56.3325 84.68 82.26 77.35 57.605 66.4775 81.41 53.45 45.22 44.26 45.85 42.63 40.1475 38.9575 36.6325 39.8375 50.2625 79.065 79.94 88.6 89.0125 109.675 117.16 95.415 77.0875 79.085 77.645 100.9075 120.225 139.4875 146.845 173.2 145.9525 130.4 128.63 160.0475 169.71 287.97 243.635 201.465 181.035 197.3825 278.4875 336.8975 324.61 350.4125 372.0325 339.525 316.7425 277.9875 286.755 288.6025 271.77 259.7075 249.07 227.9075 199.0275 183.1275 196.3325 177.1375 164.7225 149.7125 128.145 111.6375 120.36 158.98 166.425 144.4475 129.62 124.45 115.905 80.085 59.12 43.85 56.47 40.1825 29.6925 23.1625 21.52 18.87 15.7275 7.5775 7.7975 7.795 -2147483647 -2147483647 -2147483647 -2147483647 -2147483647 -2147483647 -2147483647 -2147483647 -2147483647 -2147483647 -2147483647
